# .PCD v0.7 - Point Cloud Data file format
VERSION 0.7
FIELDS x y z rgb
SIZE 4 4 4 4
TYPE F F F F
COUNT 1 1 1 1
WIDTH 109
HEIGHT 1
VIEWPOINT 0 0 0 1 0 0 0
POINTS 109
DATA ascii
-0.10071905 0.040665716 0.49650002 4.5183412e-39
-0.1026056 0.029275512 0.50749999 4.2374145e-39
-0.094388068 0.028349549 0.50518942 2.9524434e-39
-0.089083441 0.028805716 0.50400001 4.0562812e-39
-0.094866209 0.033663385 0.50460577 6.179275e-39
-0.085882254 0.035633367 0.50482595 5.6257425e-39
-0.079396829 0.036793016 0.50833333 3.4123355e-39
-0.09403386 -0.024370663 0.51600009 1.0508141e-38
-0.085030511 -0.022939729 0.51414281 1.0324108e-38
-0.084230244 -0.017584918 0.51824504 1.0231911e-38
-0.074346818 -0.015879286 0.51535004 1.0232263e-38
-0.065569021 -0.014432454 0.51329112 1.004788e-38
-0.063793339 -0.0082576191 0.51771873 1.0140433e-38
-0.054463305 -0.0065912111 0.51600003 1.0140433e-38
-0.043405242 0.00055607152 0.51862502 1.0417373e-38
-0.10380001 0.019771431 0.51900005 1.9336111e-39
-0.093869179 0.017520044 0.51824999 2.8584471e-39
-0.085727021 0.017072449 0.51771706 3.9662366e-39
-0.077987581 0.016758552 0.51880002 4.0591427e-39
-0.10450181 0.023529185 0.51635301 3.1343011e-39
-0.094710983 0.023401054 0.51496923 5.0718471e-39
-0.085038848 0.024983339 0.51374984 5.9934516e-39
-0.075468205 0.025453599 0.51623076 3.1339466e-39
-0.066918626 0.026326483 0.51844686 1.4751329e-39
-0.083536007 0.032214336 0.51089478 5.1654958e-39
-0.078041926 0.033567343 0.51190484 4.7909512e-39
-0.06779024 0.030994287 0.51862502 1.4758475e-39
-0.1057539 -0.022775598 0.52256614 1.0323751e-38
-0.097160295 -0.021462856 0.52130771 1.0139716e-38
-0.11224477 -0.019126669 0.52850002 1.0414512e-38
-0.10423641 -0.017090552 0.52668011 1.0323741e-38
-0.094643481 -0.015583938 0.52487779 1.0324103e-38
-0.085613623 -0.012768551 0.52354729 1.023299e-38
-0.07761021 -0.011906669 0.52092856 1.0233353e-38
-0.090685718 -0.009068572 0.52900004 1.0232279e-38
-0.083600394 -0.0074662766 0.52730769 1.0049319e-38
-0.074643232 -0.005895305 0.52504689 1.0233711e-38
-0.065625161 -0.0039954409 0.52318037 1.041774e-38
-0.056779791 -0.0023779597 0.52196425 1.0324108e-38
-0.10038095 0.0085323807 0.52700001 1.2929122e-39
-0.093697667 0.0070160478 0.52530003 2.2148727e-39
-0.085971408 0.0067583728 0.52682251 3.4130516e-39
-0.075856723 0.0077041262 0.52762979 4.9825493e-39
-0.064154185 0.0013617924 0.52794123 1.0693608e-38
-0.054445267 0.003466747 0.52615511 1.0509216e-38
-0.044983704 0.0048371148 0.52404165 1.0416657e-38
-0.11045068 0.016232762 0.5262 1.4747798e-39
-0.10525196 0.015075876 0.52418894 1.4751329e-39
-0.096098058 0.013333496 0.52100015 2.3985451e-39
-0.083921984 0.01274559 0.52149099 3.7818467e-39
-0.074029006 0.014474886 0.52455842 3.5967296e-39
-0.068487011 0.016064392 0.52629036 1.9368383e-39
-0.041060477 0.010328096 0.52900004 1.0509559e-38
-0.11093334 0.02129524 0.52000004 1.2903661e-39
-0.10899895 0.021800002 0.52022225 1.2903843e-39
-0.072244965 0.021898415 0.52099997 1.9368397e-39
-0.066224009 0.024326282 0.52245003 1.5666167e-39
-0.063533336 0.033867553 0.52292848 1.5662453e-39
-0.11766572 -0.020200001 0.53025001 1.0599609e-38
-0.1247884 -0.016315604 0.53604621 1.0046433e-38
-0.11484025 -0.014749479 0.53401226 1.0508133e-38
-0.10544091 -0.012178338 0.53297663 1.0692518e-38
-0.097734511 -0.011126596 0.53107703 1.0232272e-38
-0.11200921 -0.0088923816 0.53866673 1.0600691e-38
-0.10407017 -0.0068532145 0.53652084 1.032411e-38
-0.094869763 -0.0050278804 0.53401244 9.2192029e-39
-0.085726157 -0.0032944276 0.53174472 8.760024e-39
-0.077141382 -0.00134709 0.53055561 9.5897762e-39
-0.095439069 0.0038363743 0.53301919 2.2141651e-39
-0.083806373 0.0021904763 0.53193879 2.95137e-39
-0.074627101 0.0034461129 0.53158194 6.45552e-39
-0.065625392 0.0062488709 0.53189564 7.4696607e-39
-0.056260716 0.0080139684 0.53137505 1.060177e-38
-0.047395557 0.0087606357 0.53066671 1.0509214e-38
-0.070933335 0.010133334 0.53200001 3.1371822e-39
-0.064254232 0.012166781 0.53346354 2.7676836e-39
-0.054794963 0.013619434 0.53544921 9.5883441e-39
-0.045160573 0.014562691 0.5342415 1.0785074e-38
-0.035316847 0.016481698 0.53278124 1.1060949e-38
-0.041580003 0.020533334 0.53900003 1.0969108e-38
-0.12565349 -0.011395973 0.54207695 1.0415217e-38
-0.11821144 -0.010502857 0.5406 1.0416294e-38
-0.12448315 -0.0063581662 0.54662973 1.0323383e-38
-0.11522655 -0.0049542859 0.5435068 1.0324106e-38
-0.10610903 -0.002781414 0.5417878 9.6801796e-39
-0.11160967 0.0015257145 0.54761541 9.4032326e-39
-0.1058424 0.0014113606 0.54453576 5.624288e-39
-0.054677911 0.018707523 0.54109997 7.4710942e-39
-0.047314286 0.019542858 0.54000002 1.0876915e-38
-0.05362346 0.024182905 0.54472214 7.5589683e-39
-0.044914592 0.024810219 0.54418999 1.0784005e-38
-0.035599925 0.026540266 0.54328007 1.1060589e-38
-0.042874288 0.030325714 0.54900002 1.0599619e-38
-0.12671752 -0.0024180538 0.5513913 1.0323743e-38
-0.11964571 -0.0010495238 0.551 1.0323029e-38
-0.1168688 0.0042896378 0.55353999 9.9545973e-39
-0.05336529 0.029130161 0.55055559 9.7709137e-39
-0.048190475 0.029333334 0.55000007 1.0691092e-38
-0.053042281 0.032015391 0.55212009 1.373171e-38
-0.044690963 0.034741811 0.55426079 1.0875829e-38
-0.044937514 0.044943623 0.5653134 1.0599605e-38
-0.040607616 0.050894283 0.56850004 1.1152768e-38
-0.035720844 0.052151699 0.56756002 1.2626101e-38
-0.047228575 0.049038097 0.57000011 1.0600327e-38
-0.054259337 0.052404638 0.57589751 1.0414496e-38
-0.044814594 0.054784365 0.57444626 1.1428287e-38
-0.038601428 0.056335956 0.57287502 1.2532472e-38
-0.055429216 0.05752011 0.58231431 1.0783643e-38
-0.048985314 0.058783133 0.58071434 1.1706295e-38
