# .PCD v0.7 - Point Cloud Data file format
VERSION 0.7
FIELDS x y z rgb
SIZE 4 4 4 4
TYPE F F F F
COUNT 1 1 1 1
WIDTH 979
HEIGHT 1
VIEWPOINT 0 0 0 0 1 0 0
POINTS 979
DATA ascii
-0.078349628 -0.17203726 0.71055555 1.7793804e-38
-0.24177101 -0.1625454 0.71577781 9.5811064e-39
-0.23670064 -0.1672364 0.71511108 9.9488281e-39
-0.083729655 -0.16822252 0.71693748 1.7332812e-38
-0.074835993 -0.16521126 0.71457124 1.7610122e-38
-0.067182019 -0.16222508 0.71172231 1.7609767e-38
-0.25085086 -0.15169114 0.71316671 9.026862e-39
-0.24686003 -0.15474129 0.71589655 9.7644229e-39
-0.072647624 -0.15881927 0.71811116 1.7517563e-38
-0.064808033 -0.15540497 0.71534002 1.7517925e-38
-0.058373332 -0.15208693 0.71118182 1.7702313e-38
-0.26002285 -0.14761715 0.71100003 9.2112491e-39
-0.25244081 -0.14509161 0.71146882 1.1055871e-38
-0.24494083 -0.14487343 0.71475506 1.2253352e-38
-0.23525754 -0.14351255 0.7170257 1.2622846e-38
-0.22871049 -0.14106096 0.71900004 1.2806873e-38
-0.061188851 -0.14798558 0.71842867 1.742645e-38
-0.054115929 -0.14558206 0.71487987 1.7794149e-38
-0.047196995 -0.14265303 0.7122106 1.7794505e-38
-0.25176829 -0.13884446 0.71000004 1.2070394e-38
-0.24386516 -0.13743354 0.71085727 1.2529939e-38
-0.23487408 -0.13534461 0.71262753 1.2623206e-38
-0.22575794 -0.13414808 0.71602207 1.2806519e-38
-0.21627359 -0.13214083 0.71749991 1.2990906e-38
-0.20885238 -0.13078952 0.71900004 1.317566e-38
-0.052006193 -0.13856715 0.71850002 1.7978179e-38
-0.044363163 -0.13547213 0.71538299 1.7794509e-38
-0.036486935 -0.13243535 0.71152008 1.7794517e-38
-0.23193336 -0.12982857 0.71000004 1.2347697e-38
-0.22411872 -0.12660326 0.71108836 1.2715045e-38
-0.21466146 -0.12528896 0.71362954 1.2900148e-38
-0.20540476 -0.12424409 0.71564287 1.308382e-38
-0.19608222 -0.12239686 0.71747994 1.3175667e-38
-0.18830952 -0.1205181 0.71900004 1.3452242e-38
-0.041047622 -0.1286146 0.71833342 1.7517931e-38
-0.034026753 -0.12587124 0.71651161 1.78867e-38
-0.025979549 -0.12352834 0.71220583 1.7978902e-38
-0.018933333 -0.12036191 0.71000004 1.8070381e-38
-0.21208932 -0.11754392 0.71022224 1.289979e-38
-0.2047255 -0.11682446 0.71097046 1.308418e-38
-0.19478934 -0.1156979 0.71289998 1.3176739e-38
-0.18530685 -0.11458665 0.71474415 1.336041e-38
-0.17551656 -0.11215451 0.71699983 1.336078e-38
-0.16920701 -0.11128508 0.71833342 1.345333e-38
-0.030129526 -0.11914857 0.71900004 1.8162587e-38
-0.023299385 -0.11660477 0.71579409 1.8071095e-38
-0.016090654 -0.11370221 0.71343249 1.8255126e-38
-0.0094666667 -0.11089525 0.71000004 1.8255486e-38
-0.1913619 -0.10954286 0.71000004 1.3452598e-38
-0.18418971 -0.10802276 0.71037501 1.3361483e-38
-0.1744049 -0.10558139 0.7120682 1.3637004e-38
-0.16522469 -0.10475842 0.7156539 1.3729559e-38
-0.15637407 -0.10294174 0.71779168 1.391467e-38
-0.013376486 -0.10637037 0.71693099 1.8347323e-38
-0.0060176621 -0.10421285 0.71247727 1.8162933e-38
0.0010822857 -0.10067353 0.71040004 1.8163289e-38
-0.17040001 -0.098723814 0.71000004 1.3822484e-38
-0.16444011 -0.097996697 0.71194756 1.4005067e-38
-0.15424594 -0.095724404 0.71289343 1.4191254e-38
-0.14519319 -0.094679512 0.71560854 1.4560038e-38
-0.1357116 -0.093304932 0.71755868 1.5296169e-38
-0.12736574 -0.090388581 0.71900004 1.5757855e-38
-0.0037738665 -0.097001143 0.71727997 1.8439513e-38
0.0038839963 -0.09405674 0.71347046 1.8532074e-38
0.012176055 -0.091418788 0.71028578 1.8716104e-38
-0.1501143 -0.089257143 0.71000004 1.4283818e-38
-0.14410798 -0.08800789 0.71131831 1.4743713e-38
-0.13481578 -0.085800804 0.71242505 1.5481274e-38
-0.12508398 -0.085019633 0.71534765 1.5758221e-38
-0.11501846 -0.082576945 0.71593106 1.6035175e-38
-0.10568069 -0.081943966 0.71763152 1.6495784e-38
-0.099975243 -0.080801912 0.71900004 1.6956405e-38
0.0072305719 -0.087551907 0.71655005 1.880902e-38
0.014811246 -0.084757924 0.71334612 1.8716824e-38
0.021662716 -0.082696415 0.71084625 1.8900496e-38
-0.12418577 -0.078518458 0.71014291 1.5667094e-38
-0.11468877 -0.075978719 0.71195 1.6311034e-38
-0.10493201 -0.074659705 0.71334612 1.6496146e-38
-0.095441081 -0.074025288 0.71680933 1.6771655e-38
-0.087442756 -0.072236404 0.71855557 1.6771661e-38
0.017425079 -0.077793658 0.71758336 1.8993049e-38
0.02533059 -0.07550247 0.71303844 1.9085244e-38
0.033578046 -0.072290637 0.71115798 1.9177801e-38
-0.10214011 -0.06829524 0.71077782 1.6587992e-38
-0.094237082 -0.06698712 0.7118668 1.6772018e-38
-0.084807396 -0.065263264 0.71375 1.6680187e-38
-0.075582318 -0.063716128 0.71740603 1.6587985e-38
-0.067520551 -0.061562184 0.71821427 1.6679827e-38
0.027800955 -0.06882 0.7178334 1.9085961e-38
0.035462894 -0.065398693 0.71566033 1.9269635e-38
0.04297597 -0.063902929 0.71124136 1.9269999e-38
-0.082157955 -0.058347937 0.71099997 1.6865298e-38
-0.075201452 -0.054967612 0.71331602 1.659015e-38
-0.064900093 -0.055390142 0.71636367 1.6772738e-38
-0.051357143 -0.051357143 0.71900004 1.7047899e-38
-0.049302861 -0.051357143 0.71900004 1.7140091e-38
0.039716192 -0.058889527 0.71900004 1.9361838e-38
0.046099953 -0.056019254 0.71609992 1.9546225e-38
0.054503504 -0.053971272 0.71262741 1.9730614e-38
0.062486939 -0.051416453 0.71036369 1.9547301e-38
-0.051993653 -0.048573017 0.71833342 1.6224629e-38
-0.043503206 -0.043877233 0.7178182 1.7049334e-38
-0.036566779 -0.042423282 0.71844441 1.6956775e-38
0.048618101 -0.049302861 0.71900004 1.9638415e-38
0.056004398 -0.047072642 0.71600002 1.9638419e-38
0.06491071 -0.044663172 0.71424496 1.8438445e-38
0.074795112 -0.043913871 0.71634364 1.1524112e-38
0.080464765 -0.04568762 0.71600002 1.0779013e-38
-0.041537143 -0.038814288 0.71500003 1.6957851e-38
-0.034387011 -0.035940912 0.71438628 1.6957128e-38
-0.025169982 -0.035041988 0.71513999 1.6956771e-38
-0.015418896 -0.032753825 0.71763992 1.7141512e-38
-0.0069620786 -0.030838098 0.71809095 1.7324836e-38
0.067962617 -0.039031427 0.71899998 1.3730348e-38
0.073705293 -0.036914896 0.71899992 9.953905e-39
-0.032697462 -0.029315557 0.71033335 1.6956778e-38
-0.024206586 -0.028273337 0.71104181 1.7049325e-38
-0.014715019 -0.026060119 0.71225649 1.7140798e-38
-0.0055234917 -0.024415001 0.71439576 1.7233723e-38
0.0043639676 -0.022945344 0.71672213 1.7418108e-38
0.011864129 -0.021446351 0.71866673 1.7141166e-38
-0.0046968064 -0.017840672 0.7108236 1.7141169e-38
0.0053157848 -0.015538523 0.71246815 1.7049325e-38
0.014819336 -0.014733871 0.71560872 1.6957135e-38
0.023909189 -0.0131766 0.71724993 1.7233712e-38
0.031156667 -0.011298573 0.71900004 1.7508521e-38
0.0094666667 -0.0094666667 0.71000004 1.6958204e-38
0.016126804 -0.0076774601 0.71114308 1.6957131e-38
0.024906132 -0.0054366835 0.71288007 1.7233359e-38
0.034461904 -0.0050283545 0.71647733 1.7233359e-38
0.042438917 -0.0021515647 0.71871436 1.7325901e-38
0.028030753 0.00057959184 0.7104286 1.7325197e-38
0.036147065 0.0024743511 0.71193117 1.7234072e-38
0.044968631 0.0046877265 0.71413201 1.7418106e-38
0.053800471 0.0062361392 0.71724313 1.7510301e-38
0.061286196 0.0092442855 0.71900004 1.7418116e-38
0.046134375 0.011563984 0.71045458 1.7695402e-38
0.05541205 0.014034855 0.71212512 1.7417027e-38
0.064734355 0.015455371 0.71527904 1.7234068e-38
0.073469125 0.017877419 0.7180714 1.7509216e-38
0.059053972 0.020736508 0.71000004 1.7325908e-38
0.06588091 0.022095241 0.7115218 1.7418103e-38
0.075287089 0.024687085 0.71393991 1.7325555e-38
0.084416643 0.026106047 0.71582615 1.7141158e-38
0.091567375 0.027673811 0.71750003 1.74163e-38
0.078753151 0.031663239 0.71040004 1.7233714e-38
0.086056307 0.033296924 0.71085191 1.7417742e-38
0.094890811 0.03516008 0.71449995 1.7325548e-38
0.10402203 0.037818056 0.71766657 1.7417741e-38
0.096537925 0.042293333 0.71088243 1.7510656e-38
0.10474741 0.044443212 0.71293354 1.7509587e-38
0.11376498 0.046253223 0.71618181 1.7508503e-38
0.12086286 0.04880064 0.71833342 1.7325551e-38
0.10869271 0.050963499 0.71033335 1.7416304e-38
0.11554103 0.053330835 0.71171427 1.7417019e-38
0.1245557 0.055559248 0.71433991 1.7418102e-38
0.13341184 0.05756234 0.71672225 1.7418094e-38
0.12644538 0.063486129 0.71047843 1.7602132e-38
0.13506372 0.064605929 0.71386546 1.7418094e-38
0.14384809 0.06690798 0.71641368 1.7325182e-38
0.15156999 0.069454759 0.71850002 1.7509936e-38
0.13758451 0.070917562 0.71014291 1.7508857e-38
0.14550543 0.074441344 0.71149999 1.74163e-38
0.15464635 0.075498134 0.71504164 1.741702e-38
0.16374825 0.077579156 0.71805555 1.7139713e-38
0.15631165 0.082541279 0.7114349 1.7416299e-38
0.16536146 0.084548034 0.71393973 1.7232273e-38
0.17446515 0.086356632 0.71599984 1.7417379e-38
0.18253992 0.087786846 0.71809089 1.732519e-38
0.16803333 0.090947621 0.71000004 1.7415941e-38
0.17592426 0.092999302 0.71066672 1.7325542e-38
0.18518299 0.094484203 0.71421993 1.7233701e-38
0.19444928 0.096574187 0.71694446 1.7417731e-38
0.20219088 0.099316195 0.71820009 1.7416663e-38
0.18770859 0.10071646 0.7104286 1.7417734e-38
0.19558004 0.10345018 0.7121765 1.7232984e-38
0.20458129 0.10541229 0.71388233 1.7141154e-38
0.2146344 0.10676349 0.71712887 1.7417373e-38
0.22231603 0.10786027 0.71845454 1.7049313e-38
0.20807549 0.11147977 0.7105 1.7233355e-38
0.21536933 0.11333353 0.71171063 1.7325539e-38
0.22477071 0.11526518 0.71499985 1.6956767e-38
0.23428804 0.11761077 0.71713781 1.7140431e-38
0.24267964 0.11860075 0.71900004 1.7048234e-38
0.22598128 0.12122142 0.71041673 1.7141498e-38
0.23553841 0.12434295 0.71189189 1.6956395e-38
0.24400768 0.12520081 0.71538639 1.7048589e-38
0.25062287 0.12873524 0.71900004 1.6311389e-38
0.24600688 0.13144229 0.71093345 1.6128057e-38
0.2519924 0.13147429 0.71900004 1.4199502e-38
0.21759254 -0.28403121 0.72780776 1.3552777e-38
0.22530337 -0.28260756 0.7251628 1.346022e-38
0.23148952 -0.28091684 0.72533333 1.2352795e-38
0.21948381 -0.2783362 0.727 1.3183999e-38
0.22605659 -0.27738914 0.72837496 1.1984005e-38
0.23146531 -0.27730289 0.72727281 1.0597835e-38
-0.17380086 -0.25039023 0.72171438 8.0134514e-39
-0.18211187 -0.24343394 0.72313052 9.7651403e-39
-0.1751695 -0.24548835 0.72475922 8.8460959e-39
-0.16701052 -0.24198644 0.72111773 1.4657331e-38
-0.19062857 -0.23040001 0.72000003 1.105517e-38
-0.1860746 -0.23437485 0.72502565 1.0225777e-38
-0.17187518 -0.23765804 0.72769237 1.3458785e-38
-0.16480602 -0.23502354 0.72389132 1.447294e-38
-0.15795915 -0.23232035 0.72054559 1.4289625e-38
-0.19326095 -0.22417264 0.72279316 1.0778587e-38
-0.18874711 -0.22867747 0.7256667 1.040909e-38
-0.16207811 -0.2281898 0.72727281 1.4104526e-38
-0.15486939 -0.22529954 0.72460389 1.4380388e-38
-0.14670371 -0.22247352 0.72204775 1.4472941e-38
-0.20145954 -0.21405014 0.72443753 1.068639e-38
-0.1981176 -0.21809909 0.72533339 1.0686749e-38
-0.15234381 -0.21897191 0.72875005 1.4380744e-38
-0.14457159 -0.21584767 0.72591114 1.4473304e-38
-0.13641247 -0.21337524 0.72234279 1.4656974e-38
-0.21126001 -0.20157461 0.72649997 1.0685302e-38
-0.2062138 -0.20597349 0.72475874 1.0593472e-38
-0.14186423 -0.20883323 0.72814298 1.4565138e-38
-0.1339675 -0.20593879 0.7260257 1.4656978e-38
-0.12633054 -0.20350397 0.72286111 1.4842448e-38
-0.11885715 -0.20068572 0.72000003 1.5303076e-38
-0.2201905 -0.19060192 0.72250009 1.0776777e-38
-0.2154775 -0.19454241 0.72558832 1.0685657e-38
-0.1308281 -0.1988443 0.72875005 1.4657334e-38
-0.12396076 -0.19588526 0.72692508 1.5118676e-38
-0.1164228 -0.1944492 0.7227143 1.5672932e-38
-0.22297736 -0.1846876 0.72492683 1.0317245e-38
-0.2190564 -0.18518327 0.7288 9.8569786e-39
-0.12072286 -0.18940952 0.72850001 1.5395625e-38
-0.11366532 -0.18623193 0.72575003 1.5765129e-38
-0.10619996 -0.18315932 0.72236371 1.6319022e-38
-0.23141849 -0.17232458 0.72320002 9.8559066e-39
-0.22809948 -0.17728679 0.72459102 9.9495358e-39
-0.10384616 -0.17593564 0.72615391 1.641122e-38
-0.096221626 -0.17358565 0.72345006 1.6964031e-38
-0.24124122 -0.16157836 0.7233637 9.672586e-39
-0.23750089 -0.16561648 0.72430003 9.5800316e-39
-0.093751006 -0.16613701 0.72781247 1.7147705e-38
-0.085738696 -0.16419549 0.72386372 1.7240622e-38
-0.078626409 -0.16176055 0.72057158 1.7425373e-38
-0.24350306 -0.15548927 0.72323686 1.1147719e-38
-0.2355224 -0.15474547 0.7271629 1.2254057e-38
-0.22633365 -0.15195826 0.72830772 1.2807236e-38
-0.083399117 -0.15627286 0.72706258 1.7333174e-38
-0.075280592 -0.15432152 0.72284782 1.7425368e-38
-0.068973817 -0.15235882 0.72062504 1.7424646e-38
-0.24068573 -0.14948572 0.72000003 1.262142e-38
-0.23331481 -0.14776714 0.72053355 1.2622122e-38
-0.22474286 -0.14531794 0.7240544 1.2899071e-38
-0.21538734 -0.14505215 0.72744685 1.2991261e-38
-0.20612945 -0.14263058 0.72763634 1.3267491e-38
-0.19891286 -0.14059287 0.72900003 1.3267853e-38
-0.073004194 -0.14745639 0.7272501 1.7701234e-38
-0.065098658 -0.1447389 0.7235834 1.7701953e-38
-0.058263708 -0.142149 0.72066677 1.7977461e-38
-0.2225188 -0.13827984 0.72072744 1.2806879e-38
-0.21453853 -0.13670579 0.7221725 1.2899073e-38
-0.20508792 -0.13506171 0.72337741 1.3176383e-38
-0.19539052 -0.13461399 0.72681409 1.3176384e-38
-0.18535419 -0.13229968 0.72772217 1.3360045e-38
-0.17746477 -0.13095874 0.72883338 1.3452607e-38
-0.062680446 -0.13825686 0.72753853 1.7978906e-38
-0.055130593 -0.13528952 0.724814 1.7978542e-38
-0.047931086 -0.13193057 0.72081834 1.797854e-38
-0.20274286 -0.12868573 0.72000003 1.3267857e-38
-0.19395378 -0.12693143 0.72218174 1.3359338e-38
-0.18486749 -0.12544999 0.72387981 1.3543369e-38
-0.17500162 -0.12458256 0.72654176 1.3452973e-38
-0.16582079 -0.12254801 0.72799993 1.3636283e-38
-0.15829715 -0.12115286 0.72900003 1.382105e-38
-0.051706668 -0.12805143 0.72875005 1.8069657e-38
-0.04505204 -0.12558973 0.72513646 1.788634e-38
-0.037798397 -0.12278448 0.72089481 1.7886703e-38
-0.18241961 -0.11906451 0.72085726 1.3452607e-38
-0.17497109 -0.11724395 0.72162968 1.3452977e-38
-0.16481903 -0.11524269 0.72315902 1.3637364e-38
-0.15538681 -0.1144452 0.7258001 1.3913596e-38
-0.14545366 -0.1131899 0.72790903 1.4190898e-38
-0.13781571 -0.11143286 0.72900003 1.4467129e-38
-0.041057143 -0.11845296 0.72820002 1.825476e-38
-0.034064393 -0.11573912 0.72471744 1.8254768e-38
-0.026496485 -0.11295344 0.72184616 1.8163286e-38
-0.16091429 -0.10925715 0.72000003 1.3731346e-38
-0.15416977 -0.10703719 0.72077781 1.4005788e-38
-0.14488938 -0.10481791 0.72330201 1.4375278e-38
-0.13562201 -0.10473272 0.72656542 1.4835904e-38
-0.12638927 -0.10179466 0.72845459 1.53898e-38
-0.11872286 -0.10136572 0.72900003 1.5665676e-38
-0.030983496 -0.10913461 0.72833335 1.8255119e-38
-0.024258867 -0.10602595 0.72564292 1.8347319e-38
-0.016708164 -0.1034735 0.72228563 1.8439873e-38
-0.1433143 -0.098742858 0.72000003 1.4652586e-38
-0.13296942 -0.096863434 0.72080016 1.5296172e-38
-0.12472006 -0.095449805 0.72305995 1.5573475e-38
-0.1151941 -0.095191434 0.72609818 1.5850416e-38
-0.10577412 -0.093737736 0.72737932 1.621921e-38
-0.097848892 -0.091835245 0.72866672 1.6587991e-38
-0.020828573 -0.099977143 0.72900003 1.8623185e-38
-0.014325185 -0.095511802 0.72651172 1.8532071e-38
-0.0068833791 -0.093976364 0.72248381 1.87161e-38
-0.12137143 -0.089142859 0.72000003 1.6034807e-38
-0.11444446 -0.08787182 0.72175014 1.6218843e-38
-0.10444625 -0.086919419 0.72324234 1.6587262e-38
-0.095238797 -0.08504837 0.72515917 1.668018e-38
-0.085148022 -0.082560956 0.72591674 1.6864221e-38
-0.076858804 -0.0822381 0.72868752 1.677238e-38
-0.01157143 -0.088405713 0.72900003 1.8808301e-38
-0.0043255952 -0.086746186 0.72615629 1.8900492e-38
0.0038577232 -0.083596788 0.72286946 1.8900854e-38
0.010971429 -0.080914289 0.72000003 1.8809023e-38
-0.093721911 -0.078724086 0.72057164 1.6680897e-38
-0.084497921 -0.076156713 0.7213499 1.6588346e-38
-0.075106204 -0.074481048 0.72534615 1.6863854e-38
-0.06623508 -0.072764382 0.72762501 1.6864933e-38
-0.058626667 -0.071115717 0.72850007 1.6864211e-38
-0.0013885715 -0.079148576 0.72900003 1.9084522e-38
0.0059389859 -0.07688345 0.72709686 1.9084884e-38
0.014630296 -0.074365988 0.72338098 1.8992687e-38
0.02250511 -0.071395852 0.72209102 1.9177082e-38
-0.080914289 -0.069942862 0.72000003 1.658834e-38
-0.073875107 -0.067801371 0.72014302 1.6771649e-38
-0.064355262 -0.065504476 0.72226816 1.6772378e-38
-0.055369131 -0.064883061 0.72564596 1.6864567e-38
-0.047408797 -0.063193932 0.72800004 1.7048958e-38
0.017295016 -0.067309134 0.72817653 1.9268915e-38
0.024597021 -0.064621121 0.72456521 1.9177442e-38
0.031586152 -0.062048145 0.72100019 1.9269272e-38
-0.060342859 -0.058971431 0.72000003 1.6864927e-38
-0.055069018 -0.055425249 0.72072083 1.6956408e-38
-0.044810768 -0.055429529 0.72394228 1.695713e-38
-0.035417717 -0.054311901 0.72640008 1.6956767e-38
-0.028089287 -0.052712623 0.72825009 1.732483e-38
0.026652491 -0.059009738 0.72799999 1.9361469e-38
0.035272945 -0.055349667 0.72439218 1.9454026e-38
0.042511433 -0.053074885 0.72143763 1.9546223e-38
-0.04454162 -0.047344096 0.72000015 1.7140798e-38
-0.034258995 -0.046674237 0.72176319 1.7140803e-38
-0.024831254 -0.045541745 0.72438771 1.723264e-38
-0.015176958 -0.044861134 0.72595125 1.7140805e-38
-0.0063757161 -0.042757489 0.7265715 1.7324823e-38
0.0010414287 -0.040601429 0.72875005 1.7417392e-38
0.036818888 -0.048360318 0.72716665 1.9454029e-38
0.045467749 -0.045884598 0.72530442 1.9638416e-38
0.054055452 -0.042789392 0.72307146 1.9730256e-38
0.060342859 -0.041142859 0.72000003 1.9545504e-38
0.077485718 -0.041142859 0.72000003 7.6565729e-39
-0.021028575 -0.039314289 0.72000003 1.7232629e-38
-0.014562328 -0.037734885 0.72181493 1.7048964e-38
-0.0051890113 -0.035521865 0.72292298 1.7325551e-38
0.0046919575 -0.034433823 0.72620392 1.7417385e-38
0.013281905 -0.032693636 0.72789472 1.7325546e-38
0.049525719 -0.038417146 0.72900003 1.9638057e-38
0.056121141 -0.035740912 0.72711921 1.9454025e-38
0.064636923 -0.034712352 0.72351927 1.5672199e-38
0.071803115 -0.032842081 0.72118193 5.9859042e-39
-0.0013714286 -0.028800001 0.72000003 1.7418103e-38
0.0055686664 -0.027700765 0.72170013 1.7418106e-38
0.015616391 -0.025269056 0.72374421 1.723336e-38
0.024516335 -0.024104144 0.72607505 1.7325908e-38
0.033738848 -0.022273386 0.72842103 1.7325545e-38
0.063874289 -0.02916 0.72900003 1.4473611e-38
0.017828573 -0.019200001 0.72000003 1.6958214e-38
0.025651157 -0.017602088 0.72138113 1.7233709e-38
0.03501017 -0.015367255 0.72465944 1.7233709e-38
0.044419389 -0.014417477 0.72760016 1.7325185e-38
0.051377144 -0.011802858 0.72900003 1.6957127e-38
0.038295452 -0.0085447617 0.72088897 1.7417741e-38
0.045890521 -0.0060688434 0.72273803 1.7325186e-38
0.05489143 -0.0050889035 0.72630244 1.7417387e-38
0.063109271 -0.0025245026 0.72890919 1.7233716e-38
0.049371429 0 0.72000003 1.7325542e-38
0.056633584 0.0019498746 0.72147387 1.741739e-38
0.06502869 0.0044717584 0.72367311 1.7233718e-38
0.07412494 0.0064715063 0.7271893 1.7234079e-38
0.08424706 0.0083268574 0.72865003 1.732519e-38
0.067814969 0.011759456 0.72028577 1.7233718e-38
0.075897835 0.014049526 0.72248483 1.7325906e-38
0.084975906 0.015172825 0.72455102 1.7325538e-38
0.093883604 0.016679436 0.72759271 1.7325189e-38
0.086611055 0.021274665 0.72060013 1.704968e-38
0.095622204 0.024193777 0.72343886 1.7324114e-38
0.10441567 0.025905717 0.72658342 1.7325188e-38
0.11269068 0.028866285 0.72860008 1.7417738e-38
0.098377153 0.030656509 0.72066677 1.6773454e-38
0.10551245 0.03315435 0.72166663 1.7325551e-38
0.11473063 0.035083402 0.72467321 1.7325549e-38
0.12339901 0.036607783 0.72826099 1.750994e-38
0.11714858 0.04276941 0.72143757 1.7417031e-38
0.12539153 0.044606782 0.72371161 1.7510659e-38
0.13395764 0.04601682 0.7265144 1.7325908e-38
0.14287913 0.049224935 0.72890919 1.7509568e-38
0.12781714 0.051291432 0.72000003 1.7234068e-38
0.13553341 0.053554811 0.72224146 1.7417378e-38
0.14513293 0.055237897 0.72622937 1.7325544e-38
0.15279441 0.057284527 0.72800004 1.7326274e-38
0.14631958 0.0628516 0.72143483 1.7417745e-38
0.15516032 0.064916469 0.72393763 1.7234072e-38
0.16463588 0.06574738 0.72713166 1.7141514e-38
0.17195027 0.068008468 0.72866672 1.7232993e-38
0.15873048 0.070775241 0.72150004 1.723407e-38
0.16564128 0.073104769 0.72212124 1.7325174e-38
0.1748206 0.075543091 0.72480392 1.7232988e-38
0.18427548 0.076658405 0.72720701 1.7417012e-38
0.19335857 0.078627862 0.72900003 1.7325174e-38
0.17659466 0.082118452 0.72072744 1.7324808e-38
0.18530378 0.08370091 0.72240472 1.741738e-38
0.19527976 0.084992476 0.72616374 1.7325541e-38
0.20421633 0.087214291 0.72720003 1.7325537e-38
0.21307334 0.0888381 0.72875005 1.7049668e-38
0.19619519 0.09196011 0.72058839 1.7417366e-38
0.20506902 0.0947951 0.72254765 1.7325535e-38
0.21479845 0.094937131 0.72577381 1.7232988e-38
0.22480564 0.097121961 0.72806889 1.7324462e-38
0.23050287 0.098588578 0.72900003 1.7232615e-38
0.20818286 0.10038858 0.72000003 1.741702e-38
0.21564618 0.10212527 0.72176194 1.74163e-38
0.22555831 0.10466066 0.72353846 1.7049315e-38
0.23443405 0.10599947 0.72680014 1.7048957e-38
0.24367839 0.10831144 0.7283572 1.6956753e-38
0.22902858 0.11108572 0.72000003 1.7141147e-38
0.23522326 0.11245445 0.72157151 1.7141145e-38
0.24482273 0.11452397 0.72318769 1.6680166e-38
0.2542133 0.11604584 0.72693747 1.5759663e-38
0.26208001 0.11925334 0.72800004 8.7456004e-39
0.24874288 0.1224 0.72000003 1.7139713e-38
0.25501633 0.12433904 0.72195548 1.3359689e-38
0.26237416 0.1217796 0.72771436 2.8523122e-39
0.25440001 0.13131429 0.72000003 8.7409271e-39
0.18766192 -0.29098287 0.73800004 1.3181069e-38
0.1948238 -0.29118001 0.7385 1.2352058e-38
0.2004724 -0.2901943 0.73600006 1.1799963e-38
0.18862095 -0.28996953 0.73900002 1.2813018e-38
0.19741857 -0.28908977 0.73899996 1.2165153e-38
0.2052387 -0.28489739 0.73643851 1.2445342e-38
0.21344176 -0.28304437 0.73385018 1.3456636e-38
0.20660466 -0.27473524 0.73818195 1.2628649e-38
0.21628094 -0.27564427 0.73734123 1.40152e-38
0.22409123 -0.27460498 0.73493755 1.1615219e-38
0.2062162 -0.26650921 0.73900002 1.3091091e-38
0.21958858 -0.26885524 0.73900002 1.2063368e-38
0.22466807 -0.26728758 0.73389649 1.3178195e-38
0.2302143 -0.26718956 0.73250008 1.6779558e-38
-0.18156138 -0.24174914 0.73242867 8.6595228e-39
-0.17860115 -0.24157067 0.73140001 7.6446436e-39
-0.1827728 -0.23748855 0.73547065 8.4747897e-39
-0.17557098 -0.23458897 0.73405415 1.1152799e-38
-0.16878667 -0.23124 0.73133337 1.43811e-38
-0.19373107 -0.2235011 0.73576015 1.0502359e-38
-0.18956858 -0.22804478 0.73450005 1.013358e-38
-0.17283976 -0.2267234 0.73745471 1.4472577e-38
-0.1653695 -0.22426353 0.73435551 1.4196353e-38
-0.15826097 -0.22123046 0.73140001 1.4380388e-38
-0.20155275 -0.21209839 0.73390913 1.0503068e-38
-0.19755378 -0.21664903 0.73531592 1.0502359e-38
-0.16291001 -0.21818572 0.73783344 1.4288193e-38
-0.15500285 -0.21488507 0.73473465 1.4472578e-38
-0.14805354 -0.21231984 0.73190004 1.4473664e-38
-0.21072572 -0.20049271 0.73266667 1.0685303e-38
-0.20682879 -0.20557757 0.73578966 1.050092e-38
-0.15192048 -0.20853762 0.73849994 1.4198512e-38
-0.14460297 -0.20526908 0.73525006 1.4381107e-38
-0.13759634 -0.20250914 0.73178571 1.4564787e-38
-0.21366601 -0.19511738 0.73489302 1.068529e-38
-0.20916763 -0.19793716 0.73700005 1.0593823e-38
-0.14154097 -0.19871812 0.73816675 1.4657331e-38
-0.13459861 -0.19537862 0.73520452 1.456514e-38
-0.12760842 -0.19239239 0.73288238 1.4933922e-38
-0.2217056 -0.1838256 0.73271435 9.8573332e-39
-0.21858877 -0.18781699 0.73436368 1.0317244e-38
-0.12406839 -0.1858191 0.73644453 1.521015e-38
-0.11729398 -0.18334614 0.73266679 1.5488181e-38
-0.23446725 -0.17170669 0.73710001 9.9477351e-39
-0.22591174 -0.17771095 0.73175001 9.2108833e-39
-0.11401038 -0.17553914 0.73547626 1.5764769e-38
-0.10763524 -0.17304975 0.73268759 1.604208e-38
-0.23512129 -0.16477928 0.7348696 1.1332465e-38
-0.22610447 -0.16220301 0.73778963 1.2622109e-38
-0.21466191 -0.16046858 0.73900002 1.2990555e-38
-0.11190571 -0.16891429 0.73900002 1.5766561e-38
-0.10410609 -0.16609509 0.73561364 1.6503051e-38
-0.096669488 -0.16232115 0.73273927 1.7055864e-38
-0.23255841 -0.15868032 0.7318334 1.2438453e-38
-0.22484002 -0.15658903 0.73400015 1.2714323e-38
-0.21465115 -0.15463844 0.73500001 1.2991271e-38
-0.20576946 -0.15362126 0.7361936 1.3083454e-38
-0.19606501 -0.15155953 0.73835307 1.3359695e-38
-0.10134857 -0.15765333 0.73900002 1.6687088e-38
-0.094210103 -0.15621009 0.7367028 1.7240616e-38
-0.08662729 -0.15302704 0.73304015 1.7425371e-38
-0.079365715 -0.15037714 0.73100001 1.7885271e-38
-0.21024953 -0.14898476 0.73100001 1.3266779e-38
-0.20433834 -0.14705846 0.7321853 1.3174932e-38
-0.19468072 -0.14504646 0.73397881 1.3360054e-38
-0.18529783 -0.14387612 0.73728961 1.3360051e-38
-0.17761126 -0.14168139 0.73845458 1.3451891e-38
-0.083351262 -0.1459996 0.73606896 1.7793794e-38
-0.076316394 -0.14377278 0.73265815 1.7885986e-38
-0.069154918 -0.14109461 0.73100007 1.8161854e-38
-0.19247924 -0.13899772 0.73119998 1.3084893e-38
-0.1849387 -0.13709308 0.73248166 1.3451518e-38
-0.17470501 -0.1354821 0.73504788 1.3452251e-38
-0.1649871 -0.13331878 0.73674291 1.3453693e-38
-0.15586507 -0.13163798 0.73823082 1.363772e-38
-0.081316963 -0.13871582 0.73860008 1.7610837e-38
-0.073729388 -0.13702068 0.73728579 1.8070737e-38
-0.065563127 -0.13431208 0.73383349 1.7978903e-38
-0.057757054 -0.13159758 0.73145461 1.8254771e-38
-0.17137952 -0.1292319 0.73150003 1.3452966e-38
-0.16418971 -0.12682557 0.73200005 1.3452968e-38
-0.15456881 -0.12561178 0.73479068 1.3913232e-38
-0.14538589 -0.12374133 0.73710531 1.4006501e-38
-0.13685474 -0.12189144 0.73863637 1.4190895e-38
-0.062178493 -0.1269162 0.73794132 1.8346598e-38
-0.054957453 -0.12467612 0.73346686 1.8162573e-38
-0.047340948 -0.12193278 0.73100007 1.7978537e-38
-0.15219674 -0.11917144 0.73114288 1.4097979e-38
-0.14409357 -0.11785846 0.73225009 1.4190891e-38
-0.13451943 -0.11556846 0.73425579 1.4467842e-38
-0.12511285 -0.11421867 0.73654556 1.4928464e-38
-0.11601291 -0.11325663 0.73826933 1.5389088e-38
-0.10873858 -0.1115538 0.73900002 1.5851134e-38
-0.051286194 -0.11866858 0.73512495 1.8254401e-38
-0.044816755 -0.11485104 0.73242855 1.8162927e-38
-0.037491083 -0.11171238 0.73145455 1.8439153e-38
-0.13187836 -0.1082079 0.73100007 1.4560392e-38
-0.12484228 -0.10630841 0.73208833 1.5112855e-38
-0.11485662 -0.10548346 0.73399991 1.5757512e-38
-0.10561223 -0.10493552 0.7368086 1.6034809e-38
-0.095757201 -0.10259065 0.7382859 1.658798e-38
-0.088210791 -0.10181778 0.73900002 1.6587985e-38
-0.042584002 -0.10762338 0.73700011 1.8347317e-38
-0.034722034 -0.10554614 0.73495555 1.8347314e-38
-0.026700065 -0.10176241 0.7325334 1.8439516e-38
-0.10399273 -0.097986192 0.73162502 1.6127003e-38
-0.094382815 -0.095682904 0.73355013 1.6495427e-38
-0.085278995 -0.095127113 0.73567986 1.6772377e-38
-0.07707715 -0.09183985 0.73800009 1.6772026e-38
-0.032002382 -0.098466188 0.7385 1.8531713e-38
-0.024593696 -0.09545365 0.73628896 1.8532074e-38
-0.018462311 -0.092995115 0.73342866 1.8624266e-38
-0.091200948 -0.089112379 0.73100001 1.6496862e-38
-0.084523186 -0.087311119 0.73145843 1.6956051e-38
-0.074338712 -0.086256966 0.73430318 1.6863859e-38
-0.064930663 -0.083832666 0.73607904 1.6772374e-38
-0.05572018 -0.082084142 0.73856539 1.6864572e-38
-0.021114286 -0.088679999 0.73900002 1.8532789e-38
-0.014231487 -0.085580774 0.73546886 1.8808299e-38
-0.0073641753 -0.083331212 0.73342311 1.9084528e-38
-0.071011432 -0.079365715 0.73100001 1.6863512e-38
-0.064117745 -0.077286854 0.73181498 1.6863859e-38
-0.05463887 -0.074992828 0.73421437 1.686457e-38
-0.045489199 -0.073807158 0.73682767 1.6956401e-38
-0.036532164 -0.071230054 0.73769242 1.7232992e-38
-0.01171873 -0.07828635 0.7383334 1.8256569e-38
-0.0048238686 -0.076626435 0.73606253 1.8808305e-38
0.0037079162 -0.072512694 0.73346895 1.8993049e-38
0.011835238 -0.071011432 0.73100001 1.9177435e-38
-0.050821904 -0.069619045 0.73100001 1.6956413e-38
-0.043805949 -0.066536747 0.73187894 1.7140798e-38
-0.034971293 -0.06505888 0.73447615 1.7141159e-38
-0.025696732 -0.063510567 0.73737842 1.7232636e-38
-0.018851429 -0.061339427 0.73860002 1.6957494e-38
0.0069665024 -0.066486552 0.73675865 1.8717184e-38
0.014227697 -0.063905373 0.73329735 1.9177085e-38
-0.032800004 -0.058889359 0.73136365 1.7048959e-38
-0.024374735 -0.055608466 0.7325002 1.7233355e-38
-0.015374266 -0.054524038 0.73385721 1.7233353e-38
-0.0057737408 -0.054031339 0.73628575 1.7324829e-38
0.0021963096 -0.052434642 0.73775017 1.7232277e-38
0.017714689 -0.05720621 0.7363686 1.8257298e-38
0.024846161 -0.054425247 0.73434049 1.8717188e-38
0.03135651 -0.051564127 0.73166668 1.9361109e-38
-0.016708571 -0.048733335 0.73100001 1.7141552e-38
-0.0041831429 -0.04702143 0.73250008 1.7417033e-38
0.0050383997 -0.044908337 0.7343601 1.7233353e-38
0.014924038 -0.042581033 0.73628002 1.7508852e-38
0.025483638 -0.045857843 0.73772746 1.4937521e-38
0.03516854 -0.044919755 0.73480654 1.8534235e-38
0.043115836 -0.041809879 0.73168755 1.9454022e-38
0.0090504764 -0.038986668 0.73100001 1.7418461e-38
0.016613971 -0.036153976 0.73280013 1.7509936e-38
0.024947088 -0.034696981 0.73568904 1.7324466e-38
0.035557386 -0.03383971 0.73792607 1.5667481e-38
0.044784568 -0.034965236 0.7362709 1.5304861e-38
0.052441657 -0.032357331 0.73226678 1.8994133e-38
0.026786245 -0.02864339 0.73155558 1.750922e-38
0.035520125 -0.026863687 0.73316675 1.7324825e-38
0.044816669 -0.025215082 0.7352041 1.6309943e-38
0.054773636 -0.025277972 0.73734677 1.4470388e-38
0.062144388 -0.02626667 0.73565018 1.520834e-38
0.04680381 -0.018526476 0.7313 1.7232992e-38
0.054968607 -0.015742641 0.73434103 1.7048599e-38
0.063762575 -0.013587075 0.73685724 1.7049675e-38
0.070380956 -0.011260953 0.73900002 1.7142235e-38
0.058957778 -0.0088206343 0.73116672 1.7233363e-38
0.065859109 -0.0062979069 0.73208588 1.7141159e-38
0.074392386 -0.0050715506 0.73546159 1.7141522e-38
0.083530605 -0.0027242862 0.73781264 1.7141884e-38
0.076535925 0.0016855139 0.73126316 1.7234086e-38
0.08530394 0.0030280272 0.73311436 1.7325539e-38
0.094461598 0.0065741269 0.73588896 1.7141158e-38
0.10403517 0.0088671073 0.73807698 1.7048234e-38
0.096529022 0.01306436 0.73221058 1.7325188e-38
0.10500146 0.015293222 0.73437518 1.7140438e-38
0.11380798 0.017212162 0.73657697 1.7324113e-38
0.10768692 0.022423206 0.7316364 1.7325534e-38
0.11544312 0.024657097 0.73321962 1.7509576e-38
0.12377233 0.026525293 0.73592597 1.741738e-38
0.13090858 0.028856192 0.73900002 1.7601773e-38
0.11974476 0.03063238 0.73100001 1.7325909e-38
0.12624744 0.033207107 0.73200011 1.7418099e-38
0.13430476 0.035293382 0.73542511 1.7417738e-38
0.14229213 0.038062513 0.73763639 1.7509938e-38
0.13754553 0.042284194 0.73186666 1.741702e-38
0.1452041 0.044547111 0.73389757 1.7325185e-38
0.15444161 0.046113335 0.73646879 1.7141522e-38
0.16141573 0.048881426 0.73850006 1.7140787e-38
0.14898476 0.050125714 0.73100001 1.7417724e-38
0.15615188 0.053809758 0.73293954 1.7142231e-38
0.16469142 0.055453688 0.73558331 1.7232991e-38
0.1739836 0.057289951 0.73761129 1.7140435e-38
0.18017524 0.059119999 0.73900002 1.7417736e-38
0.16733508 0.061481211 0.73209089 1.7233715e-38
0.17568596 0.064149491 0.73420006 1.7233352e-38
0.18429865 0.066374168 0.73652637 1.7324825e-38
0.19256872 0.068142317 0.73871434 1.7233325e-38
0.17904381 0.071060002 0.73150003 1.7141525e-38
0.18625878 0.072310947 0.73220009 1.7232991e-38
0.19537537 0.074086592 0.73460484 1.7325181e-38
0.20489407 0.076658815 0.73677158 1.7141151e-38
0.21234642 0.078548573 0.73828578 1.7048955e-38
0.20650086 0.083039001 0.7317369 1.7232989e-38
0.21505165 0.084262379 0.73486376 1.7141515e-38
0.2235976 0.086551942 0.73690015 1.6866e-38
0.23092668 0.089843817 0.73700005 1.704931e-38
0.21953206 0.090968892 0.73100007 1.6864216e-38
0.22562592 0.092387199 0.73244452 1.7141154e-38
0.23497893 0.094649486 0.73545241 1.7048954e-38
0.24379699 0.097981088 0.73858833 1.6864918e-38
0.25421602 0.099940956 0.73900002 1.7235128e-38
0.26040953 0.099940956 0.73900002 1.5852485e-38
0.23677945 0.1020334 0.73180008 1.7048608e-38
0.24590926 0.1040122 0.73421621 1.6956755e-38
0.25493592 0.10544956 0.73565221 1.6864558e-38
0.26403686 0.10615008 0.73814714 1.5388676e-38
0.25701338 0.11235445 0.73200005 1.6498667e-38
0.26411629 0.11436835 0.73397315 1.151688e-38
0.17707756 -0.29370448 0.74800009 1.1522654e-38
0.18447061 -0.29241893 0.74683994 1.2167312e-38
0.19310477 -0.29036194 0.74000001 1.2443167e-38
0.18845263 -0.28570381 0.74626315 1.1983645e-38
0.19440812 -0.28494269 0.74285007 1.2814481e-38
0.20113905 -0.28260949 0.73999995 1.1982198e-38
0.21424761 -0.28049523 0.74000001 1.2811963e-38
0.18949334 -0.27854097 0.74800003 1.2905599e-38
0.19583279 -0.27604309 0.74526024 1.2722288e-38
0.20236444 -0.27414972 0.74079156 1.2629003e-38
0.21364701 -0.27380225 0.74019986 1.3275839e-38
0.19724765 -0.26961908 0.74500006 1.2537529e-38
0.20367368 -0.26824352 0.74119997 1.327547e-38
0.21638454 -0.26664674 0.74399984 1.1704906e-38
0.22135755 -0.26555076 0.74157155 1.6048874e-38
-0.19028571 -0.23116191 0.74000001 1.0041024e-38
-0.18484984 -0.23299989 0.74357146 8.3822325e-39
-0.17941271 -0.23168063 0.74166673 8.7578856e-39
-0.19168825 -0.22384241 0.74253339 9.9491827e-39
-0.18577906 -0.22858341 0.74655002 9.306344e-39
-0.17593597 -0.22375868 0.7431249 1.3829363e-38
-0.2015375 -0.21184868 0.74418193 1.0226125e-38
-0.19580059 -0.2167785 0.74409992 1.0132855e-38
-0.1726471 -0.21674457 0.74586952 1.4196349e-38
-0.16569899 -0.21426785 0.74365932 1.4288551e-38
-0.15848809 -0.21072716 0.74125004 1.4564054e-38
-0.21001905 -0.20015238 0.74000001 1.068602e-38
-0.20602702 -0.20489481 0.74426675 1.0226123e-38
-0.16268116 -0.20726161 0.74700004 1.4472225e-38
-0.15513602 -0.20445438 0.74371111 1.4380388e-38
-0.14797671 -0.20189928 0.74066669 1.4656965e-38
-0.21336645 -0.19400258 0.74371427 9.8580506e-39
-0.20869334 -0.19718626 0.74477786 9.5814651e-39
-0.15228724 -0.19782934 0.74720013 1.4748451e-38
-0.14493218 -0.19530566 0.74428219 1.4656967e-38
-0.13696271 -0.19136462 0.74191666 1.4656968e-38
-0.2246816 -0.18305683 0.74500006 9.3945473e-39
-0.21936192 -0.18681143 0.74300003 9.1176241e-39
-0.13406342 -0.18543017 0.74457502 1.4748811e-38
-0.12706414 -0.18249741 0.74119991 1.5117597e-38
-0.2314494 -0.17391534 0.74092305 9.9488001e-39
-0.22575864 -0.17443854 0.74411917 1.1423936e-38
-0.21525407 -0.17197613 0.74676186 1.2622123e-38
-0.20944001 -0.17097144 0.74800003 1.289906e-38
-0.13174666 -0.17874762 0.74775004 1.4749539e-38
-0.12431477 -0.17575267 0.74497676 1.5119035e-38
-0.11789247 -0.17285195 0.7416364 1.5487465e-38
-0.23163176 -0.16867302 0.74000001 1.1516846e-38
-0.22471134 -0.16691533 0.74124986 1.2437362e-38
-0.21491165 -0.16479468 0.74197787 1.2899067e-38
-0.20536925 -0.16473448 0.74438471 1.2990904e-38
-0.19516781 -0.16259034 0.74668187 1.2991274e-38
-0.18806857 -0.16099811 0.74800003 1.2991273e-38
-0.12110476 -0.16883428 0.74800003 1.5302713e-38
-0.11428182 -0.16532254 0.7444616 1.5764403e-38
-0.10769492 -0.16253889 0.74150002 1.6318292e-38
-0.21777143 -0.15927619 0.74000001 1.2897992e-38
-0.20321843 -0.15785991 0.7403332 1.2991259e-38
-0.19444168 -0.1565499 0.74258828 1.3175297e-38
-0.18488215 -0.15491104 0.7447046 1.336005e-38
-0.17565002 -0.15269873 0.74637038 1.3360411e-38
-0.16740952 -0.15102476 0.74800003 1.3636286e-38
-0.11221144 -0.1589181 0.74760002 1.5856244e-38
-0.10453781 -0.15589529 0.74462169 1.650269e-38
-0.096439794 -0.15187341 0.74226308 1.7056587e-38
-0.18337211 -0.1484942 0.74054545 1.3176018e-38
-0.17428125 -0.1456918 0.74217159 1.3360413e-38
-0.16499051 -0.14481157 0.7447021 1.3452974e-38
-0.15592434 -0.14349873 0.74713326 1.3545165e-38
-0.14858381 -0.14193843 0.74766672 1.3821399e-38
-0.1011581 -0.1496 0.74800003 1.6779278e-38
-0.094017111 -0.1457471 0.74551284 1.7149141e-38
-0.087285548 -0.14332591 0.74236351 1.7609399e-38
-0.17055239 -0.13954286 0.74000001 1.3452247e-38
-0.16446695 -0.13836762 0.74071425 1.3453326e-38
-0.15475224 -0.13641407 0.74274182 1.3729551e-38
-0.14505862 -0.13481322 0.74431914 1.3913582e-38
-0.13581614 -0.13317892 0.74664271 1.4189104e-38
-0.12854144 -0.13139048 0.74775004 1.4466057e-38
-0.091897145 -0.13962667 0.74800003 1.7149491e-38
-0.083995812 -0.13627785 0.74529159 1.7701955e-38
-0.075800925 -0.13261981 0.74262071 1.8162571e-38
-0.069159999 -0.1305562 0.74100006 1.8254763e-38
-0.14415585 -0.12852296 0.73999995 1.3914305e-38
-0.13435741 -0.12600036 0.74208337 1.4282017e-38
-0.12528965 -0.1246272 0.74392116 1.4743355e-38
-0.11529955 -0.12247297 0.74613053 1.5020301e-38
-0.10754508 -0.12155271 0.74783337 1.5664236e-38
-0.07359048 -0.12617067 0.74614811 1.7794868e-38
-0.066150226 -0.12405141 0.74344736 1.8254768e-38
-0.058299527 -0.12048572 0.74200004 1.8439164e-38
-0.12591746 -0.11980952 0.74000001 1.4836631e-38
-0.11386035 -0.11720652 0.74089462 1.5389439e-38
-0.1046553 -0.11545521 0.74347627 1.6034443e-38
-0.096017681 -0.11364728 0.74578118 1.6127006e-38
-0.087432578 -0.11192687 0.74760014 1.6495421e-38
-0.062440146 -0.11695661 0.74621427 1.7702674e-38
-0.055478994 -0.11459088 0.74353188 1.7886703e-38
-0.049196191 -0.1114862 0.74325007 1.8254403e-38
-0.1012579 -0.1088739 0.74040002 1.6218484e-38
-0.094248846 -0.10685403 0.74163997 1.6403596e-38
-0.084516101 -0.10540286 0.74366665 1.6587258e-38
-0.076013468 -0.10311302 0.74570382 1.6679458e-38
-0.067777961 -0.1017687 0.74800009 1.64958e-38
-0.053827342 -0.10781591 0.7459411 1.4479802e-38
-0.045585863 -0.10483362 0.74409682 1.7978899e-38
-0.037952591 -0.10130816 0.741 1.8162566e-38
-0.080342859 -0.098666668 0.74000001 1.7139717e-38
-0.074096344 -0.095688105 0.74177778 1.6771655e-38
-0.065311864 -0.094920777 0.74441683 1.668018e-38
-0.056693178 -0.093309924 0.74645829 1.6772017e-38
-0.042530239 -0.096979775 0.74737513 1.2905998e-38
-0.035245329 -0.095312133 0.74434298 1.604496e-38
-0.028098354 -0.091986671 0.7409091 1.8255484e-38
-0.064373329 -0.088713817 0.74074996 1.6863856e-38
-0.054351062 -0.086859494 0.74192315 1.7047886e-38
-0.04566738 -0.084934331 0.74473923 1.7048243e-38
-0.035812233 -0.083091728 0.7473684 1.6494716e-38
-0.024836192 -0.085407875 0.74497211 1.4568363e-38
-0.01781562 -0.083270095 0.74224991 1.761157e-38
-0.043672107 -0.077868991 0.74135709 1.6772382e-38
-0.034894705 -0.076251172 0.74358344 1.7232276e-38
-0.02562155 -0.074952789 0.74551105 1.6771278e-38
-0.015852466 -0.074923225 0.74460876 1.317711e-38
-0.0067365086 -0.072451539 0.74238086 1.3831549e-38
-0.024100637 -0.068306349 0.74066663 1.7323753e-38
-0.015157186 -0.065390624 0.74186373 1.6864204e-38
-0.0056633237 -0.065123536 0.74322456 1.4467472e-38
0.0031665682 -0.063467458 0.74217242 1.2444996e-38
-0.0046329256 -0.059044354 0.74057144 1.7325175e-38
0.0060430006 -0.056063641 0.74185008 1.5018482e-38
0.014399168 -0.053975344 0.74206257 1.2073673e-38
0.0091619045 -0.049333334 0.74000001 1.7047882e-38
0.016056508 -0.047578096 0.74099988 1.6217376e-38
0.025231324 -0.044405926 0.74051839 1.2528114e-38
0.032876194 -0.04204876 0.74080002 1.0971695e-38
0.028542858 -0.039114289 0.74000001 1.6953126e-38
0.034749784 -0.03686823 0.74054527 1.3543338e-38
0.065712772 -0.022186162 0.74339998 1.5482734e-38
0.07195048 -0.02137143 0.74800003 1.6034456e-38
0.066064492 -0.018029569 0.74166662 1.677308e-38
0.074782722 -0.015115307 0.74417073 1.66809e-38
0.085648298 -0.013863412 0.74699986 1.6127356e-38
0.092891134 -0.013145202 0.74761546 1.4279797e-38
0.077241361 -0.0092772795 0.74114293 1.7049685e-38
0.085337721 -0.0072474405 0.74206251 1.6773101e-38
0.09491197 -0.0054383851 0.74536955 1.6864927e-38
0.10447336 -0.003916258 0.74732143 1.5941498e-38
0.096235231 0.0014985714 0.74093741 1.7141165e-38
0.10508181 0.0035463879 0.74231702 1.7048964e-38
0.1150856 0.0056829816 0.74649984 1.6678729e-38
0.12161881 0.0074783335 0.74787503 1.6031545e-38
0.11649651 0.013342117 0.74183333 1.7233349e-38
0.12494355 0.015843853 0.74537206 1.7233702e-38
0.1340566 0.018438414 0.74783337 1.7601772e-38
0.12681858 0.023296431 0.74131238 1.7326268e-38
0.13516253 0.02524728 0.74397796 1.7325544e-38
0.14389503 0.026865507 0.74664283 1.7324827e-38
0.15387429 0.029563809 0.74800009 1.7141138e-38
0.13866603 0.031963177 0.74033344 1.7234411e-38
0.14591251 0.034633387 0.74223536 1.7232995e-38
0.15517609 0.035402402 0.74551046 1.7325906e-38
0.16456805 0.036350168 0.74724305 1.5848208e-38
0.17097144 0.03846857 0.74800003 1.3995285e-38
0.14940952 0.040876191 0.74000001 1.7234074e-38
0.15596886 0.041765586 0.74150008 1.7325551e-38
0.16528849 0.044998586 0.7431283 1.7141154e-38
0.1747175 0.046465743 0.74721622 1.7418094e-38
0.18450579 0.048296686 0.74785721 1.4186528e-38
0.19163048 0.049866669 0.74800003 5.2417993e-39
0.16773334 0.050742857 0.74000001 1.7416671e-38
0.17584944 0.053276718 0.74235994 1.7048965e-38
0.18513288 0.055200677 0.74446678 1.7232986e-38
0.19445848 0.056451533 0.74647063 1.5756731e-38
0.20192383 0.059238475 0.74760002 1.4368006e-38
0.18614128 0.061576508 0.74033332 1.7232636e-38
0.19519374 0.064330146 0.74144733 1.7233709e-38
0.20451908 0.065788068 0.74521631 1.7325878e-38
0.21338788 0.067811713 0.7461428 1.4463464e-38
0.22054286 0.06972 0.74700004 7.1667588e-39
0.20530112 0.071473271 0.74059999 1.7141514e-38
0.21537803 0.074356399 0.74286854 1.7324813e-38
0.2242258 0.075859256 0.74545723 1.4924105e-38
0.21988572 0.080342859 0.74000001 1.7141875e-38
0.227044 0.083018452 0.74205256 1.7049674e-38
0.23525073 0.08564543 0.74435908 1.6679427e-38
0.24266931 0.087201543 0.74368745 1.3634424e-38
0.23914921 0.090679362 0.74000001 1.6865287e-38
0.24578592 0.093770683 0.74081814 1.7048578e-38
0.25342923 0.096037656 0.74107689 1.5940032e-38
0.26146668 0.098666668 0.74000001 1.0768456e-38
0.25653332 0.10007619 0.74000001 1.6958922e-38
0.26358095 0.10078095 0.74000001 1.19702e-38
0.17485034 -0.29274702 0.75264704 1.1799247e-38
0.18357144 -0.29000002 0.75000012 1.1522306e-38
0.17674673 -0.28583312 0.75539464 1.124499e-38
0.18386637 -0.28426534 0.75259179 1.2075464e-38
0.18611039 -0.27563179 0.75535554 1.3921914e-38
0.19265747 -0.27348778 0.75215799 1.3736071e-38
0.18715382 -0.26800716 0.75799996 1.1984021e-38
0.19117904 -0.26904255 0.75466669 1.3736088e-38
0.21510071 -0.264027 0.75071436 1.2257361e-38
0.22092497 -0.26442441 0.75120008 1.8071431e-38
-0.19179177 -0.22303763 0.75425005 8.7524415e-39
-0.18527678 -0.2239944 0.7530244 9.5829575e-39
-0.17857145 -0.2207143 0.75000006 1.4472211e-38
-0.20100488 -0.2118504 0.7537778 9.8576975e-39
-0.19665152 -0.21580343 0.75505275 9.2123309e-39
-0.18318772 -0.21633837 0.75680763 1.2812691e-38
-0.17622767 -0.21353336 0.75344837 1.4195996e-38
-0.16857144 -0.21000001 0.75000006 1.428784e-38
-0.20496128 -0.20407663 0.75223821 9.5818183e-39
-0.17330536 -0.20761847 0.75662506 1.4380384e-38
-0.16579096 -0.20381473 0.75261778 1.4564415e-38
-0.15823621 -0.200654 0.75066674 1.4473659e-38
-0.22137779 -0.19064319 0.75633335 8.7509954e-39
-0.21715593 -0.19329306 0.7557143 8.4762008e-39
-0.20714287 -0.19857144 0.75000006 9.2119665e-39
-0.16353104 -0.19726507 0.75641674 1.4656965e-38
-0.15546988 -0.1942829 0.75417507 1.4656975e-38
-0.14620559 -0.19145115 0.75138468 1.447294e-38
-0.22323942 -0.18430787 0.75431043 1.0686015e-38
-0.21530646 -0.1836388 0.75581473 1.2252982e-38
-0.20725447 -0.18204048 0.75650012 1.2529932e-38
-0.15238082 -0.18722697 0.75746155 1.4657693e-38
-0.14487219 -0.18498343 0.75395834 1.4565493e-38
-0.13738154 -0.18174212 0.75130004 1.4565491e-38
-0.22201207 -0.17780232 0.75144446 1.2069301e-38
-0.21436761 -0.17718975 0.75195837 1.2530282e-38
-0.20480783 -0.17505194 0.75286674 1.2898344e-38
-0.19531843 -0.17383355 0.75511438 1.2898714e-38
-0.18651566 -0.17294063 0.75735307 1.3175305e-38
-0.17903239 -0.17036952 0.75800002 1.3083103e-38
-0.1428321 -0.17787048 0.75684625 1.438111e-38
-0.13478272 -0.17494804 0.75390488 1.4565853e-38
-0.127 -0.1716298 0.75145453 1.5026479e-38
-0.20104131 -0.16769397 0.75033343 1.3082733e-38
-0.19365163 -0.16714774 0.75123811 1.2898348e-38
-0.18444227 -0.16548462 0.75277287 1.317529e-38
-0.17563449 -0.16420791 0.75548643 1.3267857e-38
-0.16582158 -0.16221757 0.75738895 1.354373e-38
-0.15881905 -0.16026285 0.75800002 1.326895e-38
-0.13157429 -0.16870192 0.75700003 1.465769e-38
-0.12486444 -0.16513857 0.75467432 1.4751333e-38
-0.11814193 -0.16276458 0.75089997 1.548746e-38
-0.18000001 -0.15857144 0.75000006 1.3268541e-38
-0.17367755 -0.15728639 0.7517001 1.3360414e-38
-0.16455606 -0.15539901 0.75300014 1.3636283e-38
-0.15503171 -0.15425079 0.755225 1.3544807e-38
-0.14591859 -0.15222268 0.75731587 1.3729555e-38
-0.13860571 -0.15015619 0.75800002 1.4007588e-38
-0.12163277 -0.15881257 0.75660002 1.4475122e-38
-0.11440979 -0.15534344 0.75419456 1.4936089e-38
-0.10665361 -0.15180519 0.75085717 1.6225384e-38
-0.15311415 -0.14749131 0.75080007 1.3636639e-38
-0.14456289 -0.14536145 0.75370014 1.3821391e-38
-0.13550435 -0.14418374 0.75551373 1.3821752e-38
-0.12634887 -0.14252472 0.7574212 1.4281654e-38
-0.1152724 -0.14253011 0.75739998 1.3639171e-38
-0.10463928 -0.14500876 0.75363052 1.2262778e-38
-0.097497843 -0.14221473 0.75072736 1.6594539e-38
-0.14000002 -0.13857144 0.75000006 1.4097624e-38
-0.13318005 -0.13739172 0.75135297 1.409835e-38
-0.1245182 -0.13500239 0.75264317 1.4465684e-38
-0.11484832 -0.13457279 0.75371128 1.4650797e-38
-0.10488411 -0.13457672 0.75683784 1.3544441e-38
-0.095056966 -0.13515337 0.75539565 1.1430109e-38
-0.08610408 -0.13301648 0.75188011 1.57673e-38
-0.1217783 -0.12806858 0.75040001 1.4928094e-38
-0.11440339 -0.1272099 0.75077277 1.5204685e-38
-0.1042941 -0.12567271 0.75197375 1.5388722e-38
-0.094666161 -0.12550049 0.75434107 1.5296512e-38
-0.084798507 -0.12503846 0.75455117 1.2439907e-38
-0.076279059 -0.12291335 0.75236374 1.2264196e-38
-0.093634494 -0.11815359 0.75021058 1.6126647e-38
-0.083885767 -0.11571322 0.75177795 1.6219195e-38
-0.074785493 -0.11506021 0.75506145 1.4373837e-38
-0.065971978 -0.11420549 0.7524572 1.2167682e-38
-0.073768362 -0.10747727 0.75122225 1.6402864e-38
-0.064006239 -0.1052989 0.75135022 1.5756407e-38
-0.05494602 -0.10318531 0.75120014 1.2346624e-38
-0.047012493 -0.10117038 0.75044447 1.088203e-38
-0.053093024 -0.096357934 0.75083345 1.6495419e-38
-0.044712164 -0.094322614 0.7502858 1.3912485e-38
-0.037172951 -0.09150096 0.75060004 9.8620107e-39
-0.040714286 -0.08785715 0.75000006 1.6771285e-38
-0.034310479 -0.086491145 0.75053847 1.4556411e-38
-0.027142858 -0.083376631 0.75000012 1.2068211e-38
-0.025000002 -0.078571431 0.75000006 1.640571e-38
0.068400003 -0.030240001 0.75600004 1.5865142e-38
0.074445002 -0.030569525 0.75525004 5.6113245e-39
0.068143182 -0.027260957 0.75316679 1.6589432e-38
0.074998714 -0.025015241 0.75190252 1.289835e-38
0.084111311 -0.022893272 0.7540313 6.2599141e-39
0.090360001 -0.020797143 0.75300002 5.521158e-40
0.078571431 -0.017857144 0.75000006 1.6218483e-38
0.08370667 -0.018029336 0.75119996 1.5758895e-38
0.098095238 -0.010952382 0.75000012 1.3078724e-38
0.1007143 -0.010000001 0.75000006 9.5684709e-39
0.098571435 -0.0085714292 0.75000006 1.7599548e-38
0.10214287 -0.0085714292 0.75000006 1.3257723e-38
0.11305906 -0.0014311112 0.75133342 1.2799612e-38
0.11571429 0.0014285715 0.75000006 1.5198144e-38
0.12553334 0.006828133 0.75153852 1.2152107e-38
0.13000001 0.0085714292 0.75000006 3.8764946e-39
0.1267347 0.010612246 0.75000012 1.7048574e-38
0.13473707 0.01392083 0.75043482 1.4556021e-38
0.14297628 0.017513409 0.75176924 8.8341695e-39
0.14640826 0.022538595 0.75076193 1.4740776e-38
0.1535832 0.025874283 0.75113046 1.2429056e-38
0.16000001 0.028571431 0.75000006 6.7961868e-39
0.16095239 0.030476194 0.75000012 1.2052711e-38
0.17316572 0.038640004 0.75133342 1.1050394e-38
0.17610781 0.041372698 0.7511667 1.3812689e-38
0.1825 0.044285718 0.75000006 8.0047605e-39
0.19500002 0.052142866 0.75000012 5.51731e-39
0.20483145 0.058011428 0.75200003 4.0439946e-39
0.20746002 0.061290003 0.75050002 8.3778492e-39
0.21000001 0.062857144 0.75000006 8.0984009e-39
0.15537028 -0.29416141 0.76619524 1.152158e-38
0.16459391 -0.29356107 0.76246679 1.1799621e-38
0.17081906 -0.29314288 0.76000005 1.2076205e-38
0.15625915 -0.28818989 0.76705015 1.1707065e-38
0.16525015 -0.28573811 0.76532769 1.1799971e-38
0.17272653 -0.28387791 0.76223534 1.1150629e-38
0.16806602 -0.27745524 0.76800007 1.2720161e-38
0.17536891 -0.27706555 0.76493341 1.2905246e-38
0.18247733 -0.27371678 0.76176476 1.2999605e-38
0.17772368 -0.26371077 0.76773334 1.1244998e-38
0.18361798 -0.26669839 0.76396883 1.170742e-38
-0.19156826 -0.22052065 0.76000011 8.5633952e-39
-0.20114905 -0.21062382 0.76525003 8.4751246e-39
