# .PCD v0.7 - Point Cloud Data file format
VERSION 0.7
FIELDS x y z rgb
SIZE 4 4 4 4
TYPE F F F F
COUNT 1 1 1 1
WIDTH 437
HEIGHT 1
VIEWPOINT 0 0 0 1 0 0 0
POINTS 437
DATA ascii
-0.10702169 -0.019734479 0.5277884 1.3827542e-38
-0.11218035 -0.009853445 0.52733898 1.1429378e-38
-0.078233533 -0.03478875 0.53159779 1.4840628e-38
-0.086000398 -0.031849358 0.53142494 1.4380349e-38
-0.080881216 -0.031819914 0.53114164 1.2167661e-38
-0.09991955 -0.023733452 0.5321396 1.3093213e-38
-0.09360458 -0.025485693 0.53008246 1.2076537e-38
-0.10534427 -0.019260678 0.53027385 1.2628635e-38
-0.099908255 -0.019968189 0.53408289 1.0969119e-38
-0.11764523 -0.013183251 0.5323953 1.3914698e-38
-0.11248107 -0.013617862 0.53042287 1.2905219e-38
-0.12225839 -0.0062094405 0.53453255 1.2259492e-38
-0.11845461 -0.0052793883 0.53334922 1.1614484e-38
-0.12655288 -0.0003882274 0.53694761 1.133645e-38
-0.1218574 -0.00058682635 0.53403777 1.0968376e-38
-0.072086282 -0.035595737 0.538257 1.3458045e-38
-0.06627667 -0.035564989 0.53979349 1.1983268e-38
-0.085447848 -0.027856022 0.53678757 1.1061674e-38
-0.078647435 -0.028980138 0.54146039 1.1061671e-38
-0.089360081 -0.023182351 0.54102385 1.0785805e-38
-0.084826738 -0.024550863 0.5380668 1.0786154e-38
-0.10354177 -0.015263326 0.53966224 1.060141e-38
-0.097279802 -0.016212516 0.54209816 1.0969839e-38
-0.10787986 -0.0099449866 0.54494786 1.0876196e-38
-0.10209545 -0.010538217 0.54426026 1.0693618e-38
-0.11770579 -0.0034244955 0.54805815 1.1057708e-38
-0.11438869 -0.0044912472 0.5472877 1.0875113e-38
-0.053699087 0.034857489 0.52993697 4.0580693e-39
-0.12988207 0.0037776493 0.5421229 1.105878e-38
-0.064293407 0.039042771 0.53097475 1.9364936e-39
-0.057777606 0.039515324 0.52890098 3.2279457e-39
-0.13263725 0.0077914074 0.54807186 1.1058774e-38
-0.068669073 -0.03022931 0.55153686 1.1523378e-38
-0.06590794 -0.030694492 0.54977566 1.189107e-38
-0.077245012 -0.025370475 0.54722381 1.1154592e-38
-0.087483659 -0.01965262 0.55005687 1.0969482e-38
-0.081853822 -0.021044564 0.549932 1.0970558e-38
-0.09323281 -0.012840807 0.55162686 1.0233711e-38
-0.085232496 -0.0041194037 0.55164695 2.9510084e-39
-0.077192187 7.462129e-05 0.54969871 3.5981715e-39
-0.10553271 -0.0059682205 0.55260599 1.032483e-38
-0.10008804 -0.0072993338 0.55494261 9.9574798e-39
-0.08782433 0.0004760623 0.55136222 2.3978319e-39
-0.080882356 0.0049456172 0.54876977 3.1361172e-39
-0.073771402 0.01139722 0.54639542 4.8856635e-39
-0.065678574 0.017433703 0.54325676 6.7328117e-39
-0.056421611 0.020253904 0.54128522 8.3915988e-39
-0.048413001 0.026501074 0.53994375 4.3332128e-39
-0.11838751 -0.00027294084 0.55472708 1.0691795e-38
-0.11264705 -0.0010218993 0.55399901 1.0507412e-38
-0.090940684 0.010579102 0.55084652 1.2900368e-39
-0.085352197 0.012631714 0.54863119 2.0286724e-39
-0.077270657 0.017465845 0.54355675 4.9785738e-39
-0.068602085 0.022059686 0.54174238 5.8058234e-39
-0.060369372 0.026810139 0.53802651 6.6384651e-39
-0.051895317 0.030791342 0.53558522 4.8892775e-39
-0.12373536 0.0042832308 0.55231601 1.0783999e-38
-0.11699282 0.0042765178 0.55433398 1.0231906e-38
-0.081213482 0.026314683 0.54556847 4.1477243e-39
-0.071420804 0.031411916 0.53864068 4.9792773e-39
-0.065777875 0.034911141 0.53495824 2.4896562e-39
-0.059634876 0.035498738 0.53202951 3.5045326e-39
-0.13251913 0.012113176 0.55333763 1.087475e-38
-0.076777548 0.041245386 0.53930557 1.4740469e-39
-0.071545854 0.043561332 0.53500301 1.1059902e-39
-0.13978137 0.015617058 0.55580378 9.4003501e-39
-0.13685912 0.016819172 0.55687541 1.1151704e-38
-0.070306659 -0.029097065 0.55391991 1.1523739e-38
-0.061650611 -0.031894498 0.55582315 1.1799957e-38
-0.07215111 -0.024338361 0.55754036 1.1338623e-38
-0.06742695 -0.026112497 0.55635023 1.1523732e-38
-0.086440533 -0.016038358 0.55637807 1.0970914e-38
-0.079123996 -0.01543301 0.5591405 7.7455203e-39
-0.071310759 -0.0098176785 0.55861741 3.6892853e-39
-0.063537911 -0.0048748031 0.55756772 2.6751334e-39
-0.090226397 -0.010086253 0.55567563 5.0714953e-39
-0.083915479 -0.008469861 0.55507267 3.3201455e-39
-0.075073361 -0.0041856728 0.55304134 4.4272175e-39
-0.066503324 0.0012726001 0.55246496 4.4268532e-39
-0.058973961 0.005261492 0.55424702 4.2399284e-39
-0.051470958 0.014674261 0.54963261 5.5313693e-39
-0.10231219 -0.0060806386 0.55677122 9.9585602e-39
-0.097522795 -0.0029309317 0.55607408 3.0417565e-39
-0.091732003 0.00083825737 0.55382591 1.6595354e-39
-0.071265496 0.0084485188 0.54928911 4.9800242e-39
-0.061959587 0.015128776 0.54652101 7.6536862e-39
-0.051938318 0.018295072 0.54985857 6.084543e-39
-0.045726221 0.022856101 0.54443765 5.2551523e-39
-0.109201 0.0023110174 0.55883932 8.2961605e-39
-0.10194457 0.0051224194 0.55645955 1.473342e-39
-0.095285669 0.0092552975 0.55325621 1.1978355e-39
-0.08672744 0.017489843 0.55058503 2.1179954e-39
-0.12249853 0.008544609 0.56288797 1.0323377e-38
-0.11530679 0.0073558614 0.56234461 8.2032418e-39
-0.10490471 0.013744868 0.56058097 1.4744084e-39
-0.098119542 0.018384837 0.55518848 1.3822198e-39
-0.090934455 0.020361178 0.55206811 1.9343034e-39
-0.083734006 0.025011636 0.54856825 3.3236852e-39
-0.12775734 0.012787081 0.56441593 1.0414494e-38
-0.10557678 0.021200545 0.55853647 3.682405e-39
-0.10167518 0.023538515 0.5562731 2.0257829e-39
-0.14106521 0.02125524 0.56349677 1.1058776e-38
-0.13481891 0.018126011 0.56235242 1.0783279e-38
-0.14114556 0.025049306 0.5679943 1.1243517e-38
-0.06074924 -0.026069803 0.56602222 1.2259861e-38
-0.070249908 -0.021342777 0.56393206 1.1062753e-38
-0.065543488 -0.02130514 0.56483704 1.0141166e-38
-0.073181242 -0.016796526 0.5638209 5.3448648e-39
-0.067460313 -0.012399945 0.56367034 2.2134322e-39
-0.05940567 -0.0060248971 0.56043988 2.5822077e-39
-0.054917071 -0.0011902675 0.55898219 2.214514e-39
-0.058996793 0.00039931759 0.5576638 2.491824e-39
-0.055395827 0.0041974112 0.55713749 3.2265093e-39
-0.05380198 0.01768285 0.55441374 5.4377667e-39
-0.11963198 0.011072196 0.5718627 9.6787237e-39
-0.11448549 0.011370242 0.57251883 7.0958111e-39
-0.12525326 0.017068759 0.57224709 9.5861651e-39
-0.11913763 0.014411099 0.57556379 8.5734537e-39
-0.13779235 0.02356299 0.57156259 1.0691072e-38
-0.13271505 0.02253598 0.57322204 1.0138268e-38
-0.13933551 0.027311616 0.57348478 1.0965479e-38
-0.13741636 0.027479731 0.57514453 1.0597436e-38
-0.11439781 0.015983917 0.57646662 6.3560586e-39
-0.12196363 0.019505635 0.58154112 8.017766e-39
-0.11829984 0.019136071 0.58051038 6.9092618e-39
-0.13049348 0.026152253 0.5837301 9.3095824e-39
-0.11682343 0.022979483 0.59209931 6.3560852e-39
-0.12156265 0.027090326 0.5901252 6.4486326e-39
-0.11558476 0.025608033 0.59638381 6.080213e-39
-0.057871372 0.061469845 0.48846665 1.2812663e-38
-0.04064095 0.050918572 0.49050003 1.3548072e-38
-0.037180476 0.051491547 0.49262506 1.3088535e-38
-0.056466669 0.062066667 0.49000001 1.2719034e-38
-0.024041509 0.047509931 0.50302327 1.2997053e-38
-0.032273706 0.053177886 0.50678271 1.2811944e-38
-0.02629883 0.052408718 0.50679994 1.2350958e-38
-0.075019762 0.07597214 0.50012499 1.3548425e-38
-0.084832236 0.08416298 0.50533819 1.3088879e-38
-0.07898134 0.081084959 0.50200003 1.3272924e-38
-0.050780956 0.068472385 0.51600003 1.0047506e-38
-0.044938911 0.066204116 0.51547182 9.3114251e-39
-0.03728918 0.061280351 0.51890916 1.6792924e-38
-0.053254228 0.072584659 0.51658827 6.5462723e-39
-0.048444446 0.070928253 0.51322222 5.5292365e-39
-0.084009528 0.088949978 0.51200014 1.3640262e-38
-0.077609144 0.088275433 0.51840007 1.3917203e-38
-0.092355214 0.094178565 0.51499999 1.2442074e-38
-0.085960306 0.09289851 0.51609099 1.3916843e-38
-0.088670485 -0.031236192 0.52900004 1.6036963e-38
-0.10277715 -0.02367905 0.52900004 1.5023902e-38
-0.098410808 -0.025862224 0.52900004 1.5022469e-38
-0.060457148 0.039297145 0.52900004 3.8708124e-39
-0.053629451 0.038263656 0.52750009 4.5201404e-39
-0.047281738 0.037055567 0.5276522 4.3339261e-39
-0.064182572 0.04567996 0.52756584 2.2130651e-39
-0.054830682 0.044535287 0.5269385 4.7945511e-39
-0.047733791 0.04329687 0.52779317 7.8359223e-39
-0.0010066667 0.047817145 0.52850002 1.3641692e-38
0 0.047817145 0.52850002 1.3641332e-38
-0.070897624 0.05394952 0.52858341 1.2896612e-39
-0.066385753 0.052734636 0.5273183 2.0268633e-39
-0.056748703 0.050859675 0.52700001 1.3645252e-38
-0.040609527 0.059428576 0.52000004 1.197577e-38
-0.034371305 0.059158735 0.52053332 1.5207956e-38
-0.025564488 0.058278833 0.52287096 8.8518819e-39
-0.0033587306 0.051220637 0.52900004 1.3548782e-38
-0.041806035 0.061633658 0.52050006 2.1940368e-38
-0.034311082 0.061532434 0.52015793 1.1252207e-38
-0.027516384 0.060901906 0.52159995 3.4044378e-39
-0.074255623 0.088634036 0.52166671 1.3641694e-38
-0.092674464 0.098908402 0.52163637 1.2905211e-38
-0.084760644 0.097036786 0.52458352 1.4009044e-38
-0.076540597 0.092403695 0.52333325 1.3917204e-38
-0.069525719 0.090685718 0.52900004 1.3549501e-38
-0.092751101 0.10293896 0.52451599 1.2166212e-38
-0.087790251 0.10140262 0.52450001 1.382429e-38
-0.090860955 -0.030758858 0.53120005 1.6219925e-38
-0.083562948 -0.03258273 0.53268194 1.4287788e-38
-0.075053364 -0.034800623 0.53546572 1.3550228e-38
-0.068421543 -0.037678242 0.53800005 1.5948391e-38
-0.11092915 -0.020610286 0.53039998 1.5944044e-38
-0.10417561 -0.021631781 0.53071433 1.3365834e-38
-0.094830059 -0.024471285 0.53332907 1.1523009e-38
-0.085909761 -0.027010322 0.53499985 1.0692174e-38
-0.078964196 -0.029253334 0.537 1.0784006e-38
-0.12182859 -0.011054816 0.53300005 1.4930626e-38
-0.11418674 -0.013543945 0.53301394 1.2535359e-38
-0.10548978 -0.016494302 0.53394032 1.069289e-38
-0.09877938 -0.018798415 0.53833342 1.0415587e-38
-0.13144109 -0.0020435376 0.53671432 1.5666389e-38
-0.12498002 -0.0049443762 0.53520268 1.2996692e-38
-0.1172569 -0.0079637347 0.53607994 1.1245346e-38
-0.13295333 0 0.53900003 1.5021031e-38
-0.12730815 0.00022814816 0.53755552 1.1707396e-38
-0.071442865 0.027098477 0.53890008 6.8228395e-39
-0.065370761 0.026603693 0.53756505 6.7310097e-39
-0.054217301 0.028129522 0.53655249 4.9814745e-39
-0.046506211 0.028597461 0.53804767 3.319784e-39
-0.072383784 0.035422903 0.53506404 3.3190539e-39
-0.06506867 0.034993719 0.5333848 3.1357528e-39
-0.055528823 0.033855192 0.53275013 4.7960057e-39
-0.044814501 0.034498606 0.53478128 3.6885651e-39
-0.039124049 0.038613573 0.53525001 2.7644298e-39
-0.081027701 0.045568205 0.53900003 2.2105175e-39
-0.07500264 0.045298021 0.53402388 1.3829274e-39
-0.067219377 0.041905314 0.53066671 2.2127035e-39
-0.043129012 0.042274509 0.53184617 6.4500829e-39
-0.037364095 0.042055525 0.53525001 1.0322636e-38
-0.0045176726 0.047218837 0.53355563 1.3456958e-38
0.0010133333 0.049591117 0.53133339 1.3365833e-38
-0.08110667 0.05030667 0.53900003 2.1197582e-39
-0.075093105 0.055013102 0.53247696 1.8424665e-39
-0.069657147 0.059057146 0.53000003 6.6351594e-39
-0.010128573 0.05520143 0.53175002 1.2903774e-38
-0.0061374614 0.053223599 0.53191668 1.3180723e-38
0.0010114287 0.051060319 0.53083336 1.3365831e-38
-0.08065524 0.061767615 0.53600001 2.5753512e-39
-0.076722108 0.061453339 0.53415006 2.5800189e-39
-0.070666671 0.089847624 0.53000003 1.354986e-38
-0.067175023 0.088554911 0.5316667 1.3179997e-38
-0.082357019 0.099120006 0.53100002 1.400976e-38
-0.074575245 0.09626364 0.53546154 1.3917556e-38
-0.067853965 0.092400216 0.5356667 1.3364389e-38
-0.091247141 0.10756095 0.53525001 1.2905568e-38
-0.085292615 0.10433681 0.53564 1.3824647e-38
-0.078887388 0.10215858 0.537 1.3917929e-38
-0.090906665 0.11056952 0.53625 9.0323047e-39
-0.088988572 0.11046857 0.537 1.3544446e-38
-0.071911246 -0.031516958 0.54193336 1.1061665e-38
-0.065285794 -0.034828164 0.54373235 1.2168028e-38
-0.058388382 -0.036909338 0.54740006 1.2168753e-38
-0.092825003 -0.020886905 0.54150003 1.0415584e-38
-0.084266432 -0.023232495 0.54363996 1.06007e-38
-0.076188274 -0.027096989 0.54479992 1.0969479e-38
-0.069025241 -0.028912859 0.54700005 1.1060939e-38
-0.11122223 -0.010298413 0.5406667 1.0417012e-38
-0.10382737 -0.01241586 0.5433479 1.0508496e-38
-0.095103994 -0.016904959 0.54437947 1.0416663e-38
-0.088156193 -0.01819725 0.54772216 1.0509231e-38
-0.12240396 -0.0021434017 0.54392862 1.0507779e-38
-0.11488168 -0.0049655964 0.54399997 1.0324108e-38
-0.10720907 -0.0081172567 0.54648006 1.0600341e-38
-0.13338882 0.0054488541 0.54294455 1.1704874e-38
-0.12621728 0.0027134991 0.5457176 1.0692162e-38
-0.11929812 0 0.54700005 1.0323753e-38
-0.091197148 0.0086228568 0.54875004 1.3843778e-39
-0.08402928 0.0057816594 0.54791433 2.5840056e-39
-0.074940376 0.0054234602 0.54779762 4.0591581e-39
-0.06693095 0.0075780377 0.54878122 4.7016394e-39
-0.13707383 0.01042381 0.54725003 1.1151699e-38
-0.091671795 0.014099397 0.54831821 1.1067007e-39
-0.085017733 0.014958156 0.54638582 2.3974563e-39
-0.074854694 0.01515666 0.54421258 5.3477193e-39
-0.065486379 0.015325253 0.54512656 6.2700441e-39
-0.055650137 0.017288843 0.54562283 4.3321254e-39
-0.049400002 0.01976 0.546 5.6102567e-39
-0.091883041 0.026795853 0.54852939 1.2903675e-39
-0.084893636 0.02531809 0.5437752 2.3970878e-39
-0.075690664 0.025010074 0.54117513 4.1488118e-39
-0.064631827 0.021832382 0.54083872 5.9938146e-39
-0.055490345 0.023365786 0.54179043 7.2841806e-39
-0.045911342 0.024870513 0.5429216 3.8736556e-39
-0.082365267 0.034533337 0.54170585 3.5034325e-39
-0.077314287 0.032571431 0.54000002 3.1342969e-39
-0.040628575 0.034457147 0.54000002 2.3974381e-39
-0.039085716 0.034457147 0.54000002 2.490361e-39
-0.082553864 0.042648152 0.54100001 3.868248e-39
-0.078685716 0.040114287 0.54000002 7.3828531e-40
-0.082256518 0.051939048 0.54055554 2.5793056e-39
-0.011681635 0.059591845 0.5434286 1.2995963e-38
-0.0042586443 0.057778928 0.54254544 1.3181081e-38
0.0029298505 0.055722024 0.54371428 1.3733532e-38
-0.012600545 0.06218762 0.5447858 1.2813014e-38
-0.0053603179 0.060692064 0.54466671 1.3456579e-38
0 0.060209524 0.54500002 1.3734258e-38
-0.072468579 0.098688148 0.54072732 1.3917562e-38
-0.065366566 0.095927618 0.54708821 1.1613024e-38
-0.059605718 0.094114289 0.54900002 5.9923488e-39
-0.083672956 0.10798991 0.54305005 1.3640613e-38
-0.075672604 0.10513655 0.54595172 1.3824653e-38
-0.069152385 0.10046667 0.54800004 1.3917204e-38
-0.090999998 0.11388 0.546 1.0594569e-38
-0.086133838 0.11221683 0.54616666 1.3088161e-38
-0.074110478 0.11064382 0.54800004 1.4099792e-38
-0.051706668 -0.040099047 0.55400002 1.723697e-38
-0.04959619 -0.040099047 0.55400002 1.7512833e-38
-0.062519737 -0.031835284 0.55276197 1.124498e-38
-0.055090401 -0.035140295 0.55359632 1.15223e-38
-0.048558101 -0.037639566 0.55607694 1.309359e-38
-0.081389524 -0.020773571 0.55225003 1.060106e-38
-0.074204251 -0.023236195 0.55458933 1.0878358e-38
-0.065789074 -0.027215201 0.55613053 1.1246068e-38
-0.059520002 -0.029760001 0.55800003 1.1429374e-38
-0.10066286 -0.011010476 0.55050004 1.0417022e-38
-0.094503574 -0.012227708 0.5526191 1.0141161e-38
-0.084588304 -0.014688718 0.55489135 9.0358976e-39
-0.077142864 -0.014817384 0.55740422 7.3760203e-39
-0.11323774 -0.0017070237 0.55175006 1.0139004e-38
-0.10463838 -0.0045340811 0.55478382 9.5876224e-39
-0.095128469 -0.0053415792 0.55528063 5.1636853e-39
-0.085071728 -0.0053548692 0.55371779 3.2283156e-39
-0.075106859 -0.0051522693 0.55412805 4.5194146e-39
-0.065664023 -0.0033490581 0.55643141 2.3063425e-39
-0.056340195 -0.0021257144 0.55800003 1.3851331e-39
-0.049157143 -0.0021142857 0.55500001 4.2471507e-39
-0.13208899 0.0091463951 0.55100006 1.0416659e-38
-0.12419453 0.0064387801 0.55449998 1.0415218e-38
-0.11566462 0.0024253486 0.55584621 1.0138993e-38
-0.10358614 0.0049341358 0.55729818 1.9350292e-39
-0.095164999 0.0044157892 0.55339777 1.6598815e-39
-0.087311961 0.0018711388 0.55139142 2.8587988e-39
-0.074450091 0.0005546218 0.5500589 4.2431892e-39
-0.06404797 0.0034708569 0.55321431 2.8584359e-39
-0.056702539 0.0062002735 0.55442858 2.8584261e-39
-0.14146581 0.015945427 0.55425006 1.2071849e-38
-0.13575454 0.013835859 0.55525416 1.0691439e-38
-0.12786858 0.011170096 0.55850005 1.0506698e-38
-0.1035539 0.015057842 0.5563159 1.3814953e-39
-0.096148662 0.01540194 0.55170923 1.1059832e-39
-0.061619051 0.012190478 0.55000007 7.0990607e-39
-0.055687509 0.012206723 0.55167657 5.9005119e-39
-0.1417416 0.020097779 0.55533338 1.1887104e-38
-0.1397943 0.020121906 0.55600005 1.1243896e-38
-0.10287125 0.022370668 0.55656672 1.7502666e-39
-0.096148662 0.024462696 0.55285972 1.4740385e-39
-0.10008763 0.031942859 0.55900002 2.2101714e-39
-0.097962722 0.031694423 0.55728579 1.8424665e-39
-0.021531193 0.066436432 0.55700004 3.4098048e-39
-0.015210426 0.067370832 0.55357897 7.6497262e-39
-0.0055544763 0.065060563 0.55479997 1.3365101e-38
0.0037537708 0.062824719 0.55621624 1.3548425e-38
-0.02075365 0.073969051 0.55875003 4.6083424e-39
-0.017499683 0.073259935 0.55793345 8.2957976e-39
-0.0074533336 0.070274286 0.55900002 1.3732803e-38
-0.061169527 0.088827617 0.55850005 6.8232137e-39
-0.058988094 0.088748097 0.55800003 7.468946e-39
-0.062310226 0.095896974 0.55195463 1.0968746e-38
-0.057045925 0.094054036 0.55642551 7.8366355e-39
-0.071431212 0.10648498 0.55377781 1.3732094e-38
-0.067050509 0.10379363 0.55564523 1.3825373e-38
-0.053393465 -0.031768762 0.56290007 1.1430085e-38
-0.045687608 -0.034396823 0.56542593 1.1522668e-38
-0.070978291 -0.021164572 0.56120008 1.0971287e-38
-0.064573124 -0.023466254 0.56402189 1.1430818e-38
-0.056958761 -0.027151965 0.56600016 1.1614479e-38
-0.072932586 -0.01503743 0.5619536 5.9019679e-39
-0.067940377 -0.014877596 0.56533331 5.5331867e-39
-0.070840001 -0.009255874 0.56066674 2.3978375e-39
-0.065067388 -0.0077064694 0.5612759 2.3049132e-39
-0.056114677 -0.0027971102 0.56062078 1.8446539e-39
-0.049154289 -0.0010685715 0.56100005 5.5396299e-39
-0.12081842 0.009622857 0.56133336 1.0322309e-38
-0.11438429 0.0072290674 0.56270009 9.3103027e-39
-0.10795237 0.0039965431 0.56051862 6.729202e-39
-0.054266743 0.0011840819 0.5613929 2.2137895e-39
-0.049154289 0 0.56100005 5.6339849e-39
-0.13336599 0.017547105 0.56260014 1.0507044e-38
-0.12568261 0.013966913 0.56551862 1.0230467e-38
-0.11411675 0.01183014 0.56482357 6.9121513e-39
-0.10837333 0.014097651 0.56073332 2.3005818e-39
-0.14095256 0.022918887 0.56383336 1.1151703e-38
-0.13620308 0.021637751 0.56592858 1.0507048e-38
-0.10538883 0.026050676 0.56065798 2.7636941e-39
-0.10323142 0.031742699 0.56016666 2.855545e-39
-0.033308577 0.068771429 0.56736368 3.312954e-39
-0.026328489 0.067932859 0.56312501 3.501985e-39
-0.0033052815 0.068931438 0.56145459 1.3549141e-38
-0.05143524 0.079048574 0.56850004 5.156847e-39
-0.033502936 0.074993953 0.56758839 4.8849321e-39
-0.025671283 0.075103499 0.56289065 4.6090584e-39
-0.014197031 0.075661607 0.56513953 1.3457301e-38
-0.0063816458 0.07277859 0.56412125 1.3640611e-38
0.00086400006 0.070607238 0.56680006 1.3732453e-38
-0.061388098 0.087010473 0.56050003 6.3629474e-39
-0.054311052 0.085540816 0.56492215 8.4848972e-39
-0.045440521 0.085817233 0.56690407 9.3139446e-39
-0.034840342 0.085078672 0.56635308 8.6671263e-39
-0.027158879 0.083293073 0.56486189 8.8497001e-39
-0.015715238 0.080201901 0.56900001 1.3641325e-38
-0.061125718 0.09973143 0.56300008 1.299741e-38
-0.052719288 0.094954208 0.56208903 1.0418847e-38
-0.045551237 0.093745068 0.56538099 1.1893965e-38
-0.036884937 0.092054598 0.56585175 1.2720114e-38
-0.063285768 0.10577574 0.56364298 1.3549146e-38
-0.055950381 0.10346241 0.56650007 1.3180718e-38
-0.04321323 -0.031613968 0.57449996 1.1890343e-38
-0.061957341 -0.021234287 0.5717001 1.1523724e-38
-0.053959385 -0.024214583 0.57500005 1.1706677e-38
-0.047338307 -0.027773082 0.57626092 1.1523362e-38
-0.063182741 -0.016023168 0.57236725 7.4685845e-39
-0.058223404 -0.017898096 0.5767858 1.0603932e-38
-0.1237133 0.017692514 0.57178378 9.5854602e-39
-0.11699908 0.014892301 0.57345718 8.2039551e-39
-0.14116812 0.028127462 0.57341677 1.115135e-38
-0.13520266 0.025673173 0.57507837 1.0322653e-38
-0.12709014 0.021827571 0.57442105 9.5858134e-39
-0.14210941 0.031598371 0.57771432 1.1243537e-38
-0.13927048 0.030826667 0.57800001 1.0598511e-38
-0.040382858 0.069851428 0.57300001 3.6829108e-39
-0.038792387 0.069245085 0.57100004 4.3318297e-39
-0.050030477 0.078308575 0.57100004 4.2402745e-39
-0.043817844 0.075937018 0.57235473 4.331415e-39
-0.038559329 0.074686728 0.57070595 4.2395668e-39
-0.020628573 0.079257153 0.57000005 1.1252876e-38
-0.011225398 0.078941599 0.57033336 1.3364744e-38
-0.0049623344 0.077364936 0.57364511 1.4100155e-38
0.003124818 0.074162073 0.57502943 1.5574924e-38
-0.04394054 0.081360832 0.57052177 7.5625808e-39
-0.039108574 0.081475571 0.57033336 8.0224757e-39
-0.023313334 0.0859529 0.57387489 1.3272915e-38
-0.01558865 0.08323817 0.57168746 1.3272191e-38
-0.0086948583 0.081513718 0.57060009 1.4470008e-38
-0.04270345 0.098882645 0.57484621 1.299706e-38
-0.034587 0.095602423 0.57691312 1.3088164e-38
-0.026024701 0.092387632 0.57810009 1.30878e-38
-0.038855877 0.10135524 0.57733339 1.216729e-38
-0.051192932 -0.020825852 0.58428574 1.1891054e-38
-0.044651374 -0.024730323 0.58460009 1.1891068e-38
-0.060377143 -0.01397619 0.58700001 7.6598365e-39
-0.055324182 -0.016899312 0.58516651 1.1799596e-38
-0.048719049 -0.01904 0.58800006 1.1890341e-38
-0.12128381 0.019937143 0.58150005 8.4808909e-39
-0.11649182 0.018934859 0.58246678 6.0816522e-39
-0.13274144 0.028271431 0.58349997 9.9538742e-39
-0.12512901 0.024929741 0.58528298 8.6634913e-39
-0.11750381 0.022897145 0.58627772 5.9890824e-39
-0.13615865 0.032698702 0.58571804 1.0229744e-38
-0.12992001 0.030239999 0.588 9.585456e-39
-0.034032859 0.097944766 0.58225 1.2811574e-38
-0.027434923 0.095009536 0.58000004 1.2995959e-38
-0.042482786 -0.021241613 0.59176934 1.1891423e-38
-0.054596514 -0.012962881 0.59365863 1.0970562e-38
-0.046323445 -0.017242948 0.59600002 1.1707028e-38
-0.056957141 -0.0084600002 0.59216672 8.3905212e-39
-0.12293673 0.028463701 0.59244442 7.0950838e-39
-0.11782771 0.027181981 0.59261543 5.8968853e-39
-0.11883143 0.030702857 0.597 5.8061401e-39
