# .PCD v0.7 - Point Cloud Data file format
VERSION 0.7
FIELDS x y z rgb
SIZE 4 4 4 4
TYPE F F F F
COUNT 1 1 1 1
WIDTH 462
HEIGHT 1
VIEWPOINT 0 0 0 1 0 0 0
POINTS 462
DATA ascii
-0.12025847 0.096538752 0.57191581 1.2351319e-38
-0.12081268 0.08734519 0.57259834 1.2443881e-38
-0.12214372 0.076878838 0.57350832 1.2629372e-38
-0.12250343 0.06999889 0.57369983 1.6506615e-38
-0.12156418 0.14304665 0.55892742 1.3643507e-38
-0.1216497 0.13561982 0.56125462 1.2443518e-38
-0.12245308 0.12633058 0.56249976 1.2443879e-38
-0.12255213 0.11510022 0.56514585 1.2443881e-38
-0.12334622 0.10721567 0.56605262 1.2352037e-38
-0.12465401 0.095987543 0.56656766 1.2259494e-38
-0.12476267 0.085838743 0.56886166 1.2444237e-38
-0.12613952 0.07628236 0.56999576 1.235241e-38
-0.12722008 0.06726227 0.5698818 1.2905596e-38
-0.12947407 0.058740325 0.56732178 1.5765795e-38
-0.12403105 0.1434173 0.55709964 1.2534633e-38
-0.12522495 0.13530089 0.55876184 1.2166571e-38
-0.1257029 0.12517093 0.55901355 1.2166915e-38
-0.12724787 0.11252517 0.56039882 1.2166936e-38
-0.12899548 0.10384772 0.56194162 1.3181084e-38
-0.12850149 0.097355038 0.56501621 1.2443518e-38
-0.13031101 0.084345624 0.56491232 1.2167655e-38
-0.13103978 0.076541364 0.56632388 1.2535713e-38
-0.13128144 0.065800332 0.56771374 1.2443525e-38
-0.13270243 0.058810402 0.56674302 1.2906669e-38
-0.12304503 0.14741763 0.55557013 1.383039e-38
-0.12666292 0.10793205 0.55971187 1.2351317e-38
-0.12769435 0.15227917 0.55115533 1.3458384e-38
-0.12841184 0.14558767 0.55323523 1.271974e-38
-0.13072234 0.13607323 0.55212259 1.2443158e-38
-0.13023311 0.12597837 0.55511868 1.2074371e-38
-0.12959522 0.11693409 0.55732846 1.1982178e-38
-0.12976883 0.10780102 0.55979049 1.2536076e-38
-0.13286981 0.0946116 0.55768651 1.2166925e-38
-0.13380532 0.08839874 0.5592342 1.152156e-38
-0.13720782 0.075667188 0.55909562 1.2167299e-38
-0.13730262 0.066380724 0.5605157 1.2628273e-38
-0.13877234 0.056042291 0.56028867 1.3089259e-38
-0.14020599 0.049950849 0.55882055 1.4012305e-38
-0.14182352 0.076352097 0.5559212 1.1614476e-38
-0.14209062 0.064793631 0.55887496 1.2629002e-38
-0.14331785 0.057303976 0.55771172 1.2812669e-38
-0.13301675 0.15364133 0.54555404 1.2904133e-38
-0.13384749 0.14637186 0.54639238 1.2903048e-38
-0.13539815 0.13541535 0.54554296 1.2443867e-38
-0.1368082 0.12468359 0.54510862 1.2075088e-38
-0.13793546 0.094009809 0.55157107 1.63258e-38
-0.1399197 0.08758416 0.54873753 1.2076875e-38
-0.13995339 0.078793868 0.55379421 1.1614128e-38
-0.14117627 0.070024475 0.55318201 1.2443886e-38
-0.14298354 0.04822097 0.5561654 1.3734995e-38
-0.1392267 0.16123658 0.53894794 1.2905931e-38
-0.13818854 0.15537773 0.54154992 1.2720105e-38
-0.13834436 0.14539967 0.54242235 1.2811577e-38
-0.13935065 0.13550159 0.54183364 1.2535706e-38
-0.14122939 0.1249108 0.54345453 9.4017836e-39
-0.14237793 0.1184476 0.54593921 4.1473726e-39
-0.14191735 0.09377224 0.54997027 3.8679649e-39
-0.14370371 0.086102501 0.54889667 6.269691e-39
-0.14366278 0.075439714 0.5530681 1.1522647e-38
-0.14638343 0.066376552 0.5521723 1.2443882e-38
-0.14778981 0.056507271 0.55216491 1.2812666e-38
-0.14755744 0.047784179 0.55276 1.3274e-38
-0.11659327 0.10820865 0.52870059 1.2914913e-39
-0.11625542 0.10133842 0.53004199 2.5811371e-39
-0.11843663 0.09294492 0.53209293 3.9655261e-39
-0.12145075 0.086230591 0.53184527 2.580763e-39
-0.12569273 0.089849994 0.53422868 1.438251e-38
-0.12561235 0.086104415 0.53706992 1.2906651e-38
-0.14281559 0.1628271 0.53511298 1.363917e-38
-0.14426604 0.154264 0.53636378 1.2997052e-38
-0.14425838 0.14573571 0.53709245 1.318072e-38
-0.1447982 0.13513273 0.53697193 1.2811577e-38
-0.14568795 0.12819465 0.53806746 9.4014333e-39
-0.15049785 0.065976173 0.54684472 1.2443509e-38
-0.15276203 0.055909619 0.54699707 1.3088533e-38
-0.15323147 0.045304067 0.54803836 1.327508e-38
-0.14818025 0.1631155 0.53063315 1.3364388e-38
-0.14892398 0.15546234 0.53167516 1.327292e-38
-0.14892453 0.1450278 0.53230679 1.3364395e-38
-0.14980814 0.13529436 0.53237236 1.2904126e-38
-0.15079215 0.12962058 0.53429705 7.3713274e-39
-0.15736476 0.054663647 0.54236114 1.3180014e-38
-0.15766825 0.047029562 0.54374361 1.2996694e-38
-0.041509219 0.091676608 0.50861418 1.4841331e-38
-0.10348542 0.095905706 0.51766729 7.6684377e-39
-0.10871157 0.1085574 0.51877749 1.8450098e-39
-0.10826686 0.09989994 0.52235126 3.5970869e-39
-0.1097644 0.090891197 0.52205634 5.0729527e-39
-0.11186394 0.083113737 0.52142674 3.6882162e-39
-0.11566871 0.11659615 0.51764095 1.4747741e-39
-0.11429796 0.11061731 0.52351427 1.8439266e-39
-0.11298035 0.10270622 0.52669775 3.2301037e-39
-0.1157894 0.089829378 0.52746558 4.059514e-39
-0.11824901 0.084034756 0.52819896 2.3985437e-39
-0.12666178 0.08295583 0.53143364 1.1799936e-38
-0.15346573 0.16204034 0.52644098 1.3087801e-38
-0.15460868 0.15507337 0.52576447 1.3364399e-38
-0.1548425 0.14513312 0.52639073 1.3456588e-38
-0.15567952 0.13548774 0.52560949 1.2165842e-38
-0.15982315 0.07323578 0.53379858 1.1338988e-38
-0.16187228 0.065979898 0.53416848 1.2628271e-38
-0.16422555 0.056193214 0.53375959 1.3088528e-38
-0.16409056 0.046302468 0.53670442 1.2996333e-38
-0.1667116 0.040580615 0.53537345 1.6218474e-38
-0.15903488 0.16152008 0.52125955 1.2720462e-38
-0.15853599 0.1547568 0.52256036 1.3180365e-38
-0.15941739 0.14787802 0.52298152 1.354843e-38
-0.16606373 0.064128608 0.53279477 1.2812653e-38
-0.1671679 0.055381358 0.53274274 1.2996331e-38
-0.16950704 0.044059951 0.53332454 1.3548425e-38
-0.16852902 0.041246757 0.53558964 1.6494704e-38
-0.042235173 0.11971524 0.49865937 1.5205778e-38
-0.042679418 0.11125576 0.50100285 1.3644589e-38
-0.042292506 0.10226884 0.50430024 1.2721563e-38
-0.042900283 0.092789873 0.5070563 1.244426e-38
-0.044302545 0.083105683 0.5067721 1.2446791e-38
-0.045579966 0.076744027 0.50652963 1.3004267e-38
-0.045802757 0.12112747 0.49754888 1.2167658e-38
-0.046133462 0.11248776 0.500058 1.0692535e-38
-0.046990111 0.10249549 0.50147825 1.0323741e-38
-0.0483725 0.092410721 0.50310141 1.0231907e-38
-0.04892334 0.082743019 0.50408709 1.0599615e-38
-0.050517689 0.072907738 0.50380689 1.0508504e-38
-0.051278148 0.065776147 0.50309914 1.0789058e-38
-0.051992796 0.057063371 0.50320232 1.6591954e-38
-0.094516948 0.092623964 0.50644398 8.1174978e-39
-0.094926625 0.088949561 0.50720984 8.5752544e-39
-0.098054305 0.11355941 0.50558656 1.3829401e-39
-0.099360049 0.10740927 0.51019698 2.76515e-39
-0.1003017 0.098314539 0.51310134 5.0714869e-39
-0.1001358 0.088209778 0.5119608 5.7168605e-39
-0.10402784 0.082498789 0.5151968 2.3016818e-39
-0.11068805 0.11679652 0.51522368 1.6588011e-39
-0.10509729 0.10803098 0.51482499 4.1509726e-39
-0.10409485 0.1004017 0.5155232 5.2602292e-39
-0.10625176 0.087961465 0.51683605 6.6409874e-39
-0.10831749 0.081799835 0.51716143 4.8874348e-39
-0.11421342 0.11889566 0.51556963 2.2112504e-39
-0.15951101 0.13243434 0.51881444 9.3088621e-39
-0.16034847 0.12756465 0.51420528 4.3335603e-39
-0.16382949 0.072867684 0.52692032 1.2905225e-38
-0.16301881 0.16160688 0.51872689 1.1798506e-38
-0.16429234 0.15542586 0.51647973 1.3087803e-38
-0.16469787 0.14481005 0.5167613 1.345731e-38
-0.16474119 0.1358154 0.51737672 1.327219e-38
-0.16431774 0.12700358 0.51510078 5.7150472e-39
-0.16988884 0.081247181 0.52017486 5.8987295e-39
-0.16958298 0.07555747 0.52259433 1.1153862e-38
-0.17085947 0.065950274 0.52428246 1.2996336e-38
-0.1724271 0.056079473 0.5252707 1.3088168e-38
-0.17248386 0.048131607 0.5273248 1.3087449e-38
-0.16964076 0.15371828 0.51232779 1.30878e-38
-0.16982006 0.14913163 0.5127722 1.3088524e-38
-0.051634956 0.13799694 0.48800135 1.3180002e-38
-0.049934432 0.13122764 0.49270678 1.2352767e-38
-0.051069163 0.12243712 0.49355233 1.0507419e-38
-0.051647786 0.11189959 0.49513423 1.032375e-38
-0.052762136 0.10232547 0.49640101 1.02319e-38
-0.054124065 0.092802837 0.49676812 1.0416301e-38
-0.054715935 0.082477361 0.4986245 1.0508853e-38
-0.056007799 0.072535731 0.49893469 1.0508496e-38
-0.055244818 0.06215873 0.50060165 1.1153879e-38
-0.05649757 0.054446124 0.50089651 1.2075837e-38
-0.060236495 0.047070757 0.4982571 1.3001462e-38
-0.055210717 0.14014424 0.48662406 1.2352035e-38
-0.055046938 0.13214435 0.48873979 1.0231191e-38
-0.056090545 0.12222469 0.48935604 1.0507774e-38
-0.056482561 0.11258605 0.49015498 1.0692169e-38
-0.058024183 0.10237867 0.49085909 1.0232632e-38
-0.059192337 0.092546731 0.4924584 1.0416663e-38
-0.05969207 0.082590461 0.4941172 1.0417382e-38
-0.060392797 0.072976522 0.49573147 1.0508858e-38
-0.060915694 0.063065618 0.49632561 1.0600335e-38
-0.061780721 0.052762095 0.49629372 1.0968393e-38
-0.062520474 0.043930601 0.49584359 1.3554212e-38
-0.083417907 0.11186418 0.49284792 8.3047813e-40
-0.082285821 0.10418353 0.49517721 1.6606144e-39
-0.080858573 0.094801806 0.49697381 2.9517175e-39
-0.081759468 0.085323796 0.49807698 4.6119703e-39
-0.084811091 0.078306898 0.49860013 2.4896548e-39
-0.089597955 0.11338791 0.49586976 1.0141491e-39
-0.089565307 0.10612807 0.49952465 1.9364796e-39
-0.089277878 0.096258759 0.5027529 3.6885623e-39
-0.090796709 0.086329088 0.50310749 4.8878285e-39
-0.09302263 0.076813683 0.5011524 2.4903652e-39
-0.097967327 0.069778897 0.50041419 1.7513708e-39
-0.1002987 0.11539616 0.50322223 1.3825743e-39
-0.094885722 0.10837004 0.502783 2.5861734e-39
-0.097232804 0.082310729 0.50576419 5.9927173e-39
-0.10225967 0.076479957 0.50580627 3.9640562e-39
-0.10004033 0.070328444 0.50067991 2.3045152e-39
-0.10418445 0.11685918 0.50353575 1.8414085e-39
-0.10751686 0.076331526 0.50888956 2.2116357e-39
-0.15765217 0.13063134 0.51103914 4.7931078e-39
-0.1597887 0.12348281 0.5077911 4.8870929e-39
-0.16318642 0.11678208 0.50454777 7.3788916e-39
-0.16537352 0.084337823 0.51069349 3.7785719e-39
-0.16973805 0.14295572 0.51230574 1.3642058e-38
-0.1698274 0.13266926 0.51307547 1.3641691e-38
-0.16771063 0.12349236 0.51113087 8.2050481e-39
-0.16967773 0.11552483 0.5079115 8.9466069e-39
-0.17279115 0.10402349 0.5078612 8.4823777e-39
-0.17173113 0.094125286 0.50976717 6.8235668e-39
-0.17070992 0.08541289 0.51473445 5.9916411e-39
-0.17548236 0.075565934 0.5175823 1.2996694e-38
-0.17605506 0.066225186 0.51907367 1.3180002e-38
-0.17829593 0.054423138 0.51852083 1.3087807e-38
-0.17775311 0.048767932 0.5215838 1.3363312e-38
-0.17410582 0.15266347 0.50694448 1.3271838e-38
-0.17514063 0.14435907 0.50719023 1.308816e-38
-0.17616883 0.13556951 0.50737733 1.3456951e-38
-0.17570131 0.12531531 0.50811988 1.3733889e-38
-0.1760295 0.11486778 0.5087797 1.1522657e-38
-0.17716493 0.10515112 0.51054198 1.1246792e-38
-0.17777596 0.095914036 0.5113833 9.95497e-39
-0.17913805 0.08520928 0.5112803 1.2534634e-38
-0.17962962 0.075159103 0.51556754 1.30878e-38
-0.18262038 0.065212123 0.51308519 1.2811228e-38
-0.18256582 0.055609725 0.51479447 1.3455868e-38
-0.18234777 0.050026167 0.51759887 1.5205059e-38
-0.061669927 0.14779042 0.47712857 1.0049673e-38
-0.060902521 0.14095014 0.48066026 1.0414864e-38
-0.061063018 0.13191964 0.48173851 1.0416291e-38
-0.062290523 0.12192044 0.48217434 1.0415587e-38
-0.06253843 0.1119889 0.48416471 1.0324107e-38
-0.064084411 0.10238224 0.48541826 9.8645653e-39
-0.065097913 0.092413597 0.48729181 8.8518637e-39
-0.06539122 0.083000228 0.48879844 9.8652967e-39
-0.066546366 0.072504267 0.48844635 1.0878001e-38
-0.067061394 0.062484141 0.48938721 1.0877637e-38
-0.067823067 0.052640099 0.4904837 1.0877278e-38
-0.068256974 0.042989746 0.49088025 1.1338982e-38
-0.069203377 0.036728203 0.49078792 1.5303393e-38
-0.066614866 0.12043005 0.47935414 1.0323744e-38
-0.070471242 0.11028607 0.48154074 5.2555208e-39
-0.071683094 0.10281788 0.48553896 2.6737013e-39
-0.072472706 0.093074024 0.48851144 2.8595275e-39
-0.073210627 0.083084181 0.48926514 5.3498941e-39
-0.072694406 0.074697725 0.48634911 6.4558689e-39
-0.071827039 0.06354475 0.48532099 1.0970913e-38
-0.073701583 0.043086004 0.48746699 1.1338249e-38
-0.082543686 0.11397554 0.48998386 1.1063476e-39
-0.078302436 0.10491172 0.49015087 1.8442938e-39
-0.07667549 0.098300919 0.49102348 2.5843853e-39
-0.078132868 0.081055023 0.49382937 4.7038072e-39
-0.088102266 0.068479441 0.49373448 1.5694795e-39
-0.086287141 0.12037958 0.48844808 5.5569612e-40
-0.086917505 0.11745933 0.48973292 1.5666054e-39
-0.092466876 0.071892656 0.49613446 1.4765748e-39
-0.093144938 0.068321846 0.49559635 1.3836617e-39
-0.154658 0.11202762 0.49555665 2.6736901e-39
-0.15815717 0.11914837 0.50134206 4.3321128e-39
-0.16035435 0.11232848 0.49843693 5.0703953e-39
-0.16222262 0.10269836 0.49811977 4.1484432e-39
-0.16315427 0.09294159 0.50201541 3.410874e-39
-0.1625451 0.086874522 0.50520641 3.1339171e-39
-0.16778888 0.11135612 0.50294298 9.5916063e-39
-0.16861787 0.10413621 0.50379938 8.1157574e-39
-0.16791448 0.095259666 0.50493991 6.0856332e-39
-0.1815424 0.13283898 0.50249743 1.3548067e-38
-0.18133357 0.12472169 0.50349498 1.3457311e-38
-0.18189132 0.11542305 0.50418276 1.299669e-38
-0.18413112 0.10505337 0.50204474 1.2905211e-38
-0.18367705 0.094368339 0.50543571 1.2904492e-38
-0.18453903 0.085461162 0.50674564 1.2903778e-38
-0.18493225 0.07899262 0.50751036 1.2995981e-38
-0.18490051 0.065688632 0.51148528 1.2719027e-38
-0.18577622 0.059201632 0.51220852 1.2903051e-38
-0.18652701 0.11365667 0.50041372 1.2628265e-38
-0.18780279 0.1053575 0.50049949 1.244316e-38
-0.18946716 0.094707012 0.50092268 1.2258766e-38
-0.1900759 0.086374342 0.50216568 1.2627545e-38
-0.063172601 0.14848308 0.47500932 1.0967663e-38
-0.063517086 0.14444001 0.47568333 1.0599611e-38
-0.064708076 0.13144162 0.47704679 1.0140786e-38
-0.073274016 0.037953392 0.486853 1.0601022e-38
-0.073180251 0.034850139 0.48590213 1.3919388e-38
-0.068229154 0.15019183 0.47168618 1.0230823e-38
-0.068438664 0.14168163 0.47244048 1.0784002e-38
-0.069492519 0.13171995 0.4739815 1.0507055e-38
-0.070820838 0.12192231 0.47511446 9.8631261e-39
-0.070578262 0.11351068 0.47855568 8.1117819e-39
-0.075669475 0.071349099 0.48335224 4.0580847e-39
-0.076625071 0.062893316 0.48103309 9.5890714e-39
-0.076627597 0.052787509 0.48127061 1.1245695e-38
-0.077156648 0.042407945 0.48259836 1.1338248e-38
-0.078123666 0.034841515 0.48367852 1.1707774e-38
-0.08302854 0.064227268 0.47680861 1.5655853e-39
-0.19357136 0.085246958 0.49868739 1.1429374e-38
-0.19360189 0.075819671 0.49821532 1.1612308e-38
-0.19479206 0.068668514 0.49960995 1.1331768e-38
-0.073806278 0.151675 0.46525133 1.0875825e-38
-0.074254602 0.14217968 0.46627414 1.0600324e-38
-0.075315356 0.13194984 0.46735168 1.0139354e-38
-0.076183975 0.1234545 0.46784115 9.6787335e-39
-0.082060441 0.06028669 0.47572696 1.0602499e-38
-0.082386032 0.051451284 0.47565997 1.1429729e-38
-0.082710832 0.042648807 0.4763245 1.1430446e-38
-0.08404699 0.034499124 0.47606641 1.1430096e-38
-0.079709977 0.15785986 0.46054649 1.345118e-38
-0.078875005 0.1521367 0.46159565 1.1612318e-38
-0.079460666 0.14211403 0.46212292 1.0507414e-38
-0.080566302 0.13145104 0.46314329 9.8624059e-39
-0.081306919 0.12360753 0.46516794 7.7433525e-39
-0.086060688 0.060961206 0.4747296 6.6395455e-39
-0.086911663 0.052524008 0.4713766 1.1337179e-38
-0.087764338 0.043128639 0.47151697 1.1430083e-38
-0.088001743 0.033424728 0.47338486 1.1429374e-38
-0.084271193 0.1505473 0.45612961 1.0876191e-38
-0.084889755 0.14070679 0.45693398 1.0322301e-38
-0.08568573 0.13240747 0.45807499 9.5861707e-39
-0.092066109 0.059545863 0.46469069 8.3898065e-39
-0.092468008 0.052414611 0.46599025 1.1245343e-38
-0.092928857 0.041709367 0.46676356 1.1337893e-38
-0.093671247 0.034183335 0.46668178 1.1521927e-38
-0.085554451 0.15702298 0.45555145 1.188418e-38
-0.088321626 0.15143593 0.45212114 1.096694e-38
-0.08922869 0.14154676 0.45174408 1.0230461e-38
-0.089042395 0.13324784 0.45391148 9.4932534e-39
-0.098189607 0.06145443 0.46167213 7.3752832e-39
-0.09676519 0.053225659 0.46150279 1.1336803e-38
-0.097537875 0.041581821 0.46225882 1.1521917e-38
-0.098686278 0.034011275 0.46298271 1.1891423e-38
-0.094699979 0.14999412 0.44608235 1.0783998e-38
-0.095387965 0.14158012 0.44636577 1.0045713e-38
-0.093989938 0.13540155 0.44898474 9.4928947e-39
-0.1028181 0.057983555 0.45449185 1.2905949e-38
-0.10248204 0.051851735 0.45487577 1.1153135e-38
-0.10259145 0.042444523 0.45628923 1.161376e-38
-0.10404582 0.0344432 0.45857513 1.2996687e-38
-0.099709794 0.15036476 0.44216436 9.7752731e-39
-0.099730536 0.14619593 0.44142944 9.4950485e-39
-0.099986926 0.1368371 0.4392727 9.2159532e-39
-0.10013524 0.13521843 0.43944252 8.7553282e-39
-0.10603657 0.058615047 0.44893241 7.7448323e-39
-0.10724705 0.052749146 0.44971782 1.0785433e-38
-0.10756256 0.042391337 0.45045847 1.1521922e-38
-0.10297729 0.13568783 0.43957871 8.387975e-39
-0.11134341 0.058466248 0.44581574 5.0700422e-39
-0.11199889 0.051791817 0.44605738 1.1152415e-38
-0.11274529 0.042553425 0.44773936 1.2074375e-38
-0.11220281 0.035838127 0.4493022 1.6311403e-38
-0.11699478 0.058073912 0.4398849 7.8373572e-39
-0.11749388 0.052575596 0.43876827 1.1336446e-38
-0.11875935 0.045100335 0.44054353 1.354769e-38
-0.12244707 0.057973221 0.43400574 1.1155654e-38
-0.12201285 0.052529015 0.43576509 1.207329e-38
-0.12150973 0.046305757 0.43961143 1.5113916e-38
-0.10129179 0.060854204 0.45699996 1.1798499e-38
-0.094258323 0.06277781 0.45681635 1.2258408e-38
-0.085156798 0.065118082 0.45547742 1.2443522e-38
-0.093354762 0.067844763 0.46345004 1.1706672e-38
-0.088851437 0.067807622 0.46033335 1.1984686e-38
-0.078857146 0.069219045 0.46000001 1.2444605e-38
-0.093330331 0.072069161 0.46838894 1.133969e-38
-0.08392036 0.074052967 0.46477616 1.2074382e-38
-0.075558446 0.075968362 0.46259722 1.2443883e-38
-0.081293337 0.080399998 0.46900001 1.2074741e-38
-0.073390968 0.081950486 0.46670365 1.2443878e-38
-0.13583462 0.0581435 0.47220504 1.1705942e-38
-0.12471953 0.059383571 0.47237504 1.1797778e-38
-0.1180141 0.059915431 0.47660002 1.3457649e-38
-0.13429375 0.062886201 0.47682369 1.1797415e-38
-0.12443142 0.064229921 0.47411013 9.125924e-39
-0.11607172 0.065418243 0.47526187 1.0048624e-38
-0.10675607 0.06753508 0.47084862 1.2820623e-38
-0.11126763 0.070274286 0.47300002 3.22361e-39
-0.10878478 0.070125721 0.47200006 1.4748274e-39
-0.093064457 0.076965354 0.47184217 6.4566004e-39
-0.08820013 0.077848338 0.4728125 1.1153866e-38
-0.09155152 0.081206419 0.47418183 2.9488224e-39
-0.083861433 0.083570525 0.47541678 1.0601779e-38
-0.075768046 0.085956447 0.47438002 1.2443155e-38
-0.066579796 0.088569634 0.47233337 1.2720469e-38
-0.072067782 0.091639057 0.47791672 1.2720465e-38
-0.14547193 0.066205047 0.48438558 1.2258394e-38
-0.13581504 0.067482635 0.48138088 1.0692513e-38
-0.12982857 0.069028571 0.48000002 4.3313701e-39
-0.14338772 0.07110095 0.48881817 1.2351315e-38
-0.13609804 0.071673796 0.48568419 7.650431e-39
-0.12982857 0.0704 0.48000002 3.2232583e-39
-0.084708057 0.087830827 0.4805454 9.2191986e-39
-0.076800011 0.089469396 0.48000005 1.2351325e-38
-0.083033964 0.093304239 0.4858889 1.133718e-38
-0.075504802 0.095320754 0.48372868 1.2719391e-38
-0.066116773 0.09831661 0.48121744 1.2811228e-38
-0.072267495 0.1011698 0.48728576 1.2810504e-38
-0.15483911 0.074049689 0.49432892 1.27201e-38
-0.14516056 0.075432144 0.49362183 1.2443153e-38
-0.13848965 0.076915719 0.49356249 4.9749641e-39
-0.14160381 0.081512004 0.49760005 1.0507035e-38
-0.13878334 0.081451908 0.49650007 4.3317681e-39
-0.084908575 0.097949751 0.49151728 1.115207e-38
-0.078400001 0.099866666 0.49000001 1.2627567e-38
-0.090114288 0.10434286 0.49800003 1.3269313e-38
-0.085076116 0.10274009 0.49602181 1.2350956e-38
-0.075131871 0.10519601 0.49358818 1.2719387e-38
-0.071654513 0.1117858 0.49800012 1.2352041e-38
-0.16599645 0.077512003 0.50107908 1.2903778e-38
-0.15514247 0.079285525 0.50029999 1.2811581e-38
-0.14819048 0.079809524 0.5 1.2811926e-38
-0.13558456 0.078122757 0.50844449 1.7520729e-39
-0.1640926 0.08382266 0.50629318 1.281085e-38
-0.15506969 0.084760383 0.50525653 1.3087798e-38
-0.14527801 0.085617773 0.50377035 1.2442059e-38
-0.13647433 0.085739315 0.50660866 4.2399186e-39
-0.14262429 0.09056095 0.50850004 1.3269641e-38
-0.13495143 0.092206784 0.50813335 6.6370021e-39
-0.095386237 0.098667689 0.50899994 5.3469906e-39
-0.1025654 0.10555094 0.50858331 7.4671384e-39
-0.096024297 0.1052964 0.50718838 9.1255667e-39
-0.085460678 0.10785128 0.50211769 1.2719383e-38
-0.079100318 0.10927936 0.50033337 1.2536438e-38
-0.093513995 0.11149183 0.50805259 1.2627182e-38
-0.084556177 0.1132183 0.50580394 1.2443512e-38
-0.076082632 0.1142756 0.50308329 1.2534986e-38
-0.1327448 0.077362068 0.51378375 2.4864093e-39
-0.12867557 0.077127874 0.51780009 2.3041663e-39
-0.16489217 0.089045301 0.5112223 1.2810488e-38
-0.15882859 0.089371435 0.51000005 1.3087438e-38
-0.1323828 0.08464127 0.51258075 4.1477314e-39
-0.12731531 0.086643428 0.51744664 5.2540761e-39
-0.16342355 0.092645504 0.51500005 1.2626824e-38
-0.15448613 0.094723053 0.51466662 1.290413e-38
-0.1451149 0.09520182 0.51279736 1.3271827e-38
-0.13429959 0.096059971 0.51090777 1.0046792e-38
-0.12505388 0.094977252 0.51426989 8.6692857e-39
-0.11537677 0.096966393 0.51693624 8.6689256e-39
-0.10462563 0.096755341 0.51676834 4.8863698e-39
-0.098814905 0.096671499 0.51364714 4.3313883e-39
-0.15125144 0.10116383 0.51900005 1.2811218e-38
-0.14429834 0.10231785 0.51758534 1.3088165e-38
-0.13447873 0.103871 0.51601827 1.3364391e-38
-0.12509778 0.10482182 0.5146479 1.2350968e-38
-0.11474416 0.10435848 0.51239198 9.495445e-39
-0.10596096 0.10421585 0.51130378 8.1128623e-39
-0.098761916 0.10329525 0.51000011 8.022082e-39
-0.12337059 0.11097024 0.51890916 1.2903774e-38
-0.11448082 0.11264795 0.51760006 1.2628269e-38
-0.10479374 0.11453048 0.51575345 1.253499e-38
-0.095510453 0.11616848 0.51371431 1.2259119e-38
-0.087441206 0.11782879 0.51189476 1.2166925e-38
-0.074324183 0.11930438 0.51340002 1.2534637e-38
-0.068888575 0.11921143 0.51300001 1.2627546e-38
-0.1008343 0.12060572 0.51900005 1.1705972e-38
-0.096687414 0.1209418 0.51855558 1.1705594e-38
-0.083591886 0.12260119 0.51808828 1.2258769e-38
-0.074599177 0.12317795 0.51493341 1.1520481e-38
-0.068864323 0.12278535 0.51253849 1.0228666e-38
-0.12587878 0.078986667 0.52452946 2.8559037e-39
-0.12385555 0.083818808 0.52292693 3.7782146e-39
-0.11604737 0.086677916 0.52504075 3.9618827e-39
-0.10776348 0.089042775 0.52472734 2.856631e-39
-0.1643962 0.097470939 0.52087879 1.2625743e-38
-0.15962002 0.098647624 0.52050006 1.2626464e-38
-0.12058478 0.090852074 0.52033341 6.9132415e-39
-0.11468506 0.092151165 0.52180451 5.8083219e-39
-0.10610764 0.092138618 0.5215556 2.7655116e-39
-0.16226366 0.10166731 0.5215714 1.3087085e-38
-0.13644522 0.10863346 0.52143747 1.3180728e-38
-0.10665867 0.11934477 0.52040005 1.2075802e-38
-0.07788191 0.127424 0.52020007 9.9541993e-39
