# .PCD v0.7 - Point Cloud Data file format
VERSION 0.7
FIELDS x y z rgb
SIZE 4 4 4 4
TYPE F F F F
COUNT 1 1 1 1
WIDTH 58
HEIGHT 1
VIEWPOINT 0 0 0 1 0 0 0
POINTS 58
DATA ascii
-0.048534766 0.043830954 0.44900003 0
-0.04420165 0.051192179 0.45658624 0
-0.073214605 0.058437195 0.47095251 0
-0.07278426 0.062107794 0.473147 0
-0.10436877 0.059638869 0.47440001 0
-0.025134342 0.077094406 0.49378413 0
-0.081740953 0.019960001 0.49900001 0
-0.02277286 0.08171726 0.49812505 0
-0.10419364 -0.040633336 0.50491667 0
-0.084794112 -0.036711242 0.50539142 0
-0.075066462 -0.037045017 0.50536919 0
-0.055077087 0.083590828 0.50588137 0
-0.060936004 0.084149346 0.50780004 0
-0.049445715 -0.036841903 0.509 0
-0.055070799 0.088696197 0.51170009 0
-0.12503415 -0.027986864 0.51697522 0
-0.095081545 -0.022678578 0.52426577 0
-0.064951234 -0.022964813 0.52432871 0
-0.030285716 -0.020190477 0.53000003 0
-0.056466669 -0.0092400005 0.53900003 0
-0.052763991 -0.010758442 0.54027271 0
-0.050805237 0.006455238 0.56450003 0
-0.051411007 0.013681271 0.57427788 0
-0.12704761 0.049942859 0.46000001 0
-0.065137275 0.062910989 0.47515872 0
-0.065137275 0.062910989 0.47515872 0
-0.097600669 0.064584613 0.47497568 0
-0.097600669 0.064584613 0.47497568 0
-0.067549586 0.034727842 0.49190682 0
-0.01936762 0.078887619 0.49600002 0
-0.084117144 -0.042771429 0.49900004 0
-0.14130121 0.085614711 0.50100005 0
-0.060936004 0.084149346 0.50780004 0
-0.049445715 -0.036841903 0.509 0
-0.11010206 0.077390239 0.50931931 0
-0.11010206 0.077390239 0.50931931 0
-0.085052624 -0.027538685 0.51748097 0
-0.065391868 0.078697242 0.51618189 0
-0.064944901 0.092422508 0.51758993 0
-0.092737846 0.082822293 0.52175611 0
-0.06517534 0.09712974 0.52284211 0
-0.095081545 -0.022678578 0.52426577 0
-0.094810888 -0.015134858 0.52524722 0
-0.055922858 -0.019144764 0.52900004 0
-0.11489391 -0.01544248 0.53367156 0
-0.15119463 -0.0049649701 0.54613048 0
-0.050805237 0.006455238 0.56450003 0
-0.051411007 0.013681271 0.57427788 0
-0.097600669 0.064584613 0.47497568 0
-0.080470473 0.0092104767 0.509 0
-0.058459323 -0.0014225852 0.52271432 0
-0.10903563 0.0017415584 0.52254546 0
-0.068731047 0.075408511 0.52093339 0
-0.10468908 0.097637273 0.52204669 0
-0.028559048 0.012642382 0.57300001 0
-0.14099282 0.064990692 0.47755554 0
-0.10455325 -0.037765719 0.50701749 0
-0.10269956 0.023875896 0.50584346 0
