# .PCD v0.7 - Point Cloud Data file format
VERSION 0.7
FIELDS x y z rgb
SIZE 4 4 4 4
TYPE F F F F
COUNT 1 1 1 1
WIDTH 980
HEIGHT 1
VIEWPOINT 0 0 0 0 1 0 0
POINTS 980
DATA ascii
-0.3150765 -0.24129783 0.6179601 1.6505939e-38
-0.30513942 -0.2408714 0.61566681 1.6598131e-38
-0.33357811 -0.23772906 0.61837518 1.382973e-38
-0.3239111 -0.23734303 0.61890006 1.4660228e-38
-0.31607547 -0.23780486 0.61900002 1.6320829e-38
-0.30365545 -0.23601757 0.61751986 1.6689612e-38
-0.29476354 -0.23566033 0.61583811 1.6874006e-38
-0.28512844 -0.23460647 0.61496222 1.7334264e-38
-0.27518025 -0.2348914 0.61295128 1.7519012e-38
-0.26602927 -0.23317325 0.61208886 1.7703405e-38
-0.2556307 -0.23120101 0.61177784 1.7795601e-38
-0.24643666 -0.23043428 0.611 1.7887795e-38
-0.17398952 -0.23101619 0.611 1.8532807e-38
-0.35190791 -0.22409019 0.61704171 1.096407e-38
-0.34793118 -0.22756076 0.61393332 1.0780043e-38
-0.29063523 -0.22991429 0.61900002 1.7148792e-38
-0.28409821 -0.22819228 0.61868012 1.724207e-38
-0.27440026 -0.22726409 0.61757773 1.7610848e-38
-0.26469946 -0.22610262 0.61726016 1.7703408e-38
-0.25505862 -0.22513518 0.61629862 1.7887796e-38
-0.24500045 -0.22507228 0.61379725 1.8071827e-38
-0.23507684 -0.22448526 0.61339259 1.8072185e-38
-0.22502646 -0.22362359 0.61342418 1.816438e-38
-0.21493581 -0.22431825 0.61318964 1.825658e-38
-0.20495203 -0.2243946 0.61301351 1.8256579e-38
-0.19524808 -0.22388656 0.61424065 1.8256579e-38
-0.18470851 -0.22419101 0.61369848 1.8164742e-38
-0.17520401 -0.22444317 0.61355573 1.8440967e-38
-0.16525386 -0.22362363 0.61346972 1.8440971e-38
-0.15497428 -0.22394839 0.61336625 1.8533524e-38
-0.1449897 -0.22416852 0.61381483 1.8717914e-38
-0.13523535 -0.22463945 0.61389279 1.8809743e-38
-0.12530796 -0.2242303 0.61501515 1.8440953e-38
-0.11482841 -0.22367761 0.61661559 1.7518637e-38
-0.35247046 -0.21431659 0.61626929 1.0872596e-38
-0.26764381 -0.21930286 0.61900002 1.7242072e-38
-0.25363943 -0.21814917 0.61834788 1.7888158e-38
-0.24492428 -0.21768568 0.61813337 1.7887795e-38
-0.23587379 -0.21776925 0.61828583 1.8164022e-38
-0.22514616 -0.21868883 0.61812913 1.8072546e-38
-0.21484308 -0.21830039 0.61778778 1.8164023e-38
-0.20517595 -0.21775787 0.61804765 1.825622e-38
-0.19524275 -0.21736535 0.61828572 1.8256583e-38
-0.1850089 -0.21819532 0.61773539 1.807255e-38
-0.17475003 -0.21791451 0.61764109 1.8256579e-38
-0.16485527 -0.21769476 0.61746347 1.8348413e-38
-0.1552131 -0.2181562 0.61785716 1.8348774e-38
-0.14550398 -0.21865553 0.61824012 1.8348776e-38
-0.13472715 -0.21837077 0.6182071 1.844133e-38
-0.12463164 -0.21854097 0.61803228 1.8625723e-38
-0.11620373 -0.21858838 0.61821061 1.8718635e-38
-0.10485958 -0.21855588 0.61855561 1.908705e-38
-0.094154283 -0.21835887 0.61821759 1.742535e-38
-0.16770753 0.076443292 0.61572725 6.3560852e-39
-0.16944286 0.082383335 0.6135 6.4486326e-39
-0.35062596 -0.23525023 0.62612498 9.1233821e-39
-0.34598863 -0.23458166 0.62621915 9.6762279e-39
-0.33474505 -0.23367932 0.62217259 1.3737536e-38
-0.32535949 -0.23288482 0.62166059 1.4198524e-38
-0.31532368 -0.23479857 0.62229359 1.6413025e-38
-0.30659992 -0.23209849 0.62157696 1.6597415e-38
-0.29653713 -0.2307581 0.61999995 1.6781812e-38
-0.35137412 -0.2233752 0.62390316 1.0227214e-38
-0.34614789 -0.2275268 0.6268214 1.0507051e-38
-0.33495423 -0.2261076 0.62749159 1.3644621e-38
-0.32485968 -0.22676769 0.62739664 1.4106331e-38
-0.31480068 -0.22476846 0.62614667 1.5858775e-38
-0.30505368 -0.22484641 0.62520993 1.6412307e-38
-0.29509616 -0.22488008 0.62283587 1.6780014e-38
-0.28536975 -0.22354643 0.62127799 1.7057673e-38
-0.27575001 -0.22268349 0.62084627 1.7333905e-38
-0.26646581 -0.2215896 0.61999995 1.7518298e-38
-0.35416749 -0.21496376 0.62706816 1.032013e-38
-0.31415769 -0.2186524 0.62900007 1.5489992e-38
-0.30520666 -0.21884862 0.6285333 1.6412666e-38
-0.29459813 -0.21621029 0.62784755 1.6688536e-38
-0.28513622 -0.21555351 0.62668824 1.6964764e-38
-0.27487925 -0.21492608 0.62492609 1.7056959e-38
-0.26506117 -0.21488048 0.62380004 1.7334261e-38
-0.25568926 -0.21382444 0.62394112 1.7611212e-38
-0.24482232 -0.2128644 0.62321991 1.7794882e-38
-0.23444849 -0.21356788 0.62336373 1.7979633e-38
-0.22509527 -0.21412678 0.62331259 1.8071823e-38
-0.21500288 -0.21332951 0.62374204 1.8255856e-38
-0.20494004 -0.21276675 0.62267947 1.8348416e-38
-0.19468267 -0.21249107 0.62343866 1.8256579e-38
-0.18494768 -0.21333951 0.62389719 1.8256936e-38
-0.17512529 -0.2131598 0.6243999 1.8348777e-38
-0.16500452 -0.21313161 0.62445146 1.8440613e-38
-0.15485896 -0.21339767 0.62437886 1.8256942e-38
-0.14491856 -0.21383624 0.62390566 1.8440971e-38
-0.13501254 -0.2134212 0.62405938 1.8348777e-38
-0.12523167 -0.2136697 0.62413716 1.8440971e-38
-0.11478277 -0.21401225 0.62405246 1.8625363e-38
-0.10487988 -0.21381348 0.62374997 1.8809751e-38
-0.095094875 -0.21389361 0.62418061 1.8901945e-38
-0.085197926 -0.21500078 0.62302434 1.7979259e-38
-0.075288475 -0.21383928 0.62382555 1.7978899e-38
-0.065029971 -0.21337834 0.62533331 1.6407952e-38
-0.3551358 -0.20481849 0.62706065 1.0687839e-38
-0.28334951 -0.20966667 0.62900001 1.7056599e-38
-0.27196762 -0.20886795 0.62900007 1.6965483e-38
-0.26394129 -0.208868 0.62853855 1.7149875e-38
-0.2547594 -0.20696494 0.62807709 1.7702326e-38
-0.24484232 -0.20773482 0.62710881 1.7887433e-38
-0.23486345 -0.20737042 0.62750012 1.7979274e-38
-0.22484632 -0.20718914 0.62757713 1.7979632e-38
-0.21584396 -0.20769684 0.62794602 1.7979635e-38
-0.20439726 -0.20739636 0.62753493 1.8072546e-38
-0.1955408 -0.20774908 0.62800008 1.8256219e-38
-0.18483739 -0.20761436 0.62834376 1.8256221e-38
-0.1750702 -0.20822184 0.62825924 1.8348407e-38
-0.16478696 -0.20830342 0.62836003 1.8533164e-38
-0.15522307 -0.20796831 0.62829632 1.8348773e-38
-0.14514916 -0.20812573 0.62838471 1.844133e-38
-0.13516551 -0.20815317 0.62818527 1.8533164e-38
-0.12510568 -0.20840475 0.62865216 1.8349132e-38
-0.11615428 -0.20865649 0.62829417 1.8440613e-38
-0.10405615 -0.20861554 0.62868416 1.8533163e-38
-0.095051877 -0.20780772 0.62837929 1.8533167e-38
-0.084813684 -0.20786053 0.62782061 1.8441333e-38
-0.07488586 -0.20795089 0.62761903 1.8533526e-38
-0.065226823 -0.20742346 0.62746811 1.8626079e-38
-0.05563369 -0.20826222 0.62815624 1.8348409e-38
-0.358744 -0.19734341 0.62900001 1.0964785e-38
-0.16645175 0.07800667 0.62050003 6.080213e-39
-0.34614861 -0.2310662 0.63100004 1.0597139e-38
-0.35143459 -0.22324675 0.63245463 8.0159681e-39
-0.34607288 -0.22453125 0.63265318 1.1152088e-38
-0.33468744 -0.22150432 0.6316002 1.3552423e-38
-0.32679525 -0.22187154 0.63150018 1.3552795e-38
-0.35210234 -0.21658963 0.6337744 8.6609746e-39
-0.34428295 -0.21470863 0.63496083 1.2721577e-38
-0.33497918 -0.21523733 0.63479167 1.3737175e-38
-0.32504034 -0.21502712 0.63464916 1.3921575e-38
-0.31504855 -0.21419935 0.63324255 1.5213756e-38
-0.30534694 -0.21422678 0.63233346 1.6504143e-38
-0.29616988 -0.21179113 0.63176471 1.6688537e-38
-0.28605336 -0.21053366 0.63100004 1.6964406e-38
-0.27598616 -0.21055266 0.63114291 1.7056959e-38
-0.35665682 -0.20255584 0.63371438 1.0320489e-38
-0.3422606 -0.20910516 0.63900006 1.382973e-38
-0.33462694 -0.20817462 0.6379357 1.3920491e-38
-0.32470238 -0.20706335 0.63746512 1.401413e-38
-0.31475833 -0.20620809 0.63755316 1.5305241e-38
-0.30505678 -0.20531899 0.63617104 1.659598e-38
-0.29481888 -0.20540455 0.63522971 1.6965124e-38
-0.28531668 -0.20519976 0.63488454 1.7057322e-38
-0.27484733 -0.20477203 0.63369322 1.7333545e-38
-0.26529607 -0.20419218 0.63383102 1.7149517e-38
-0.25480449 -0.20251261 0.6322 1.7518295e-38
-0.24536389 -0.20289433 0.6328752 1.7794883e-38
-0.23511434 -0.20268477 0.63330972 1.7886719e-38
-0.22489905 -0.20232269 0.63356096 1.7795241e-38
-0.21493703 -0.20338036 0.63335192 1.7979992e-38
-0.20521715 -0.20288396 0.63334095 1.8072186e-38
-0.194877 -0.20338529 0.6337145 1.8164022e-38
-0.1852057 -0.20299752 0.63370925 1.8256223e-38
-0.17520311 -0.20363151 0.63272887 1.825622e-38
-0.16513492 -0.2035795 0.63250017 1.8348777e-38
-0.15496817 -0.20339844 0.63306683 1.8532806e-38
-0.14492591 -0.20350282 0.63326675 1.8533167e-38
-0.13489738 -0.20330383 0.63355404 1.8533166e-38
-0.12497389 -0.2038943 0.63284761 1.8625004e-38
-0.1147745 -0.20448349 0.63310295 1.8533166e-38
-0.10516678 -0.20407513 0.63304693 1.8533167e-38
-0.09505064 -0.20323835 0.63267273 1.8625003e-38
-0.085009068 -0.20311409 0.63259184 1.844097e-38
-0.075218849 -0.20299266 0.63297957 1.8256583e-38
-0.06468825 -0.20274037 0.63282245 1.8256224e-38
-0.054762959 -0.2036189 0.63276362 1.8348774e-38
-0.3609257 -0.19565333 0.63800001 1.1147021e-38
-0.35897845 -0.19784574 0.63456249 1.0688208e-38
-0.2924186 -0.19930714 0.63900006 1.7240272e-38
-0.28441575 -0.19812074 0.6384232 1.7333541e-38
-0.2751449 -0.19716637 0.63758337 1.7333542e-38
-0.26604199 -0.19828486 0.63865006 1.7333545e-38
-0.25458387 -0.19724156 0.63686687 1.7426103e-38
-0.24481145 -0.19724785 0.63691837 1.7610852e-38
-0.23524705 -0.19752297 0.63742232 1.7887077e-38
-0.22548176 -0.19811152 0.6374287 1.7887075e-38
-0.21458121 -0.19820811 0.63797241 1.7979632e-38
-0.20536584 -0.1982923 0.63752949 1.7979993e-38
-0.19507042 -0.1989156 0.63775003 1.807147e-38
-0.18410455 -0.19902974 0.63822222 1.8163311e-38
-0.17445797 -0.19867885 0.63796669 1.8256223e-38
-0.16499913 -0.19852853 0.63754833 1.8256583e-38
-0.15566932 -0.19869891 0.63773078 1.8440613e-38
-0.14541104 -0.19887087 0.63788009 1.8440971e-38
-0.13443497 -0.19926098 0.63871431 1.8716481e-38
-0.12506962 -0.19935632 0.63779992 1.8625721e-38
-0.11463101 -0.19912067 0.63788456 1.8625e-38
-0.10525373 -0.19957718 0.63760006 1.8441334e-38
-0.094585538 -0.19802386 0.63758826 1.8625363e-38
-0.085448787 -0.19801733 0.63645726 1.8440971e-38
-0.074908458 -0.19854377 0.63712132 1.8441332e-38
-0.065020666 -0.19822529 0.6380527 1.8348419e-38
-0.055251967 -0.19854254 0.63753128 1.8072186e-38
-0.045027092 -0.19853678 0.63794452 1.8256584e-38
-0.36064002 -0.21221335 0.64400005 9.9520693e-39
-0.35647333 -0.2129273 0.64450014 9.2127148e-39
-0.34851429 -0.21033144 0.64200002 1.2627577e-38
-0.36100286 -0.20141143 0.64574999 1.0043899e-38
-0.35560015 -0.20616947 0.64578056 1.0595655e-38
-0.34449655 -0.20405473 0.64284492 1.3644262e-38
-0.33531815 -0.20323034 0.64283645 1.3736818e-38
-0.32516229 -0.20245498 0.64162862 1.3921216e-38
-0.3165572 -0.20183569 0.64036846 1.475135e-38
-0.3022449 -0.20062478 0.64057148 1.6964045e-38
-0.2982724 -0.20096152 0.64020008 1.696512e-38
-0.36218435 -0.19438533 0.64467454 1.0595642e-38
-0.35703456 -0.197006 0.64700007 1.0321225e-38
-0.34474832 -0.19809383 0.64734381 1.3643546e-38
-0.33443651 -0.19664392 0.64731109 1.3736459e-38
-0.3249447 -0.19542414 0.64648527 1.3920488e-38
-0.3146576 -0.19581158 0.64512479 1.4843897e-38
-0.30524847 -0.19525133 0.64377809 1.6135363e-38
-0.29523164 -0.19474393 0.64342308 1.6964762e-38
-0.28514081 -0.19317387 0.64283359 1.7240992e-38
-0.27491006 -0.19223686 0.64246511 1.7333178e-38
-0.26530606 -0.19369709 0.64246166 1.7333905e-38
-0.25489265 -0.1921543 0.64130795 1.7518291e-38
-0.24495493 -0.19202206 0.64174432 1.7702682e-38
-0.23489086 -0.19249755 0.64235568 1.7887438e-38
-0.22493954 -0.19290835 0.64168531 1.8071106e-38
-0.21512802 -0.19293271 0.64205462 1.7979633e-38
-0.20460124 -0.19330223 0.64225018 1.7979637e-38
-0.19478028 -0.19379212 0.64210618 1.8163666e-38
-0.18509552 -0.19413221 0.64276934 1.807147e-38
-0.1751678 -0.19347937 0.64263165 1.807219e-38
-0.16531014 -0.19346826 0.64287728 1.8164383e-38
-0.15510334 -0.19391675 0.64295262 1.825622e-38
-0.1449762 -0.19381104 0.64281261 1.8348417e-38
-0.13499376 -0.19415025 0.64295942 1.8440613e-38
-0.12502015 -0.19422795 0.64283812 1.8532807e-38
-0.1152205 -0.19399461 0.64269257 1.8625001e-38
-0.10508085 -0.19453767 0.64220512 1.8533167e-38
-0.095284157 -0.19336094 0.64305693 1.8625003e-38
-0.084879361 -0.19339061 0.64276373 1.8625e-38
-0.075212553 -0.19340244 0.64258629 1.8440614e-38
-0.064983882 -0.19260274 0.64163458 1.8440253e-38
-0.054891113 -0.19337426 0.6423561 1.8164031e-38
-0.044810705 -0.19340365 0.64266086 1.8348776e-38
-0.36412272 -0.18568353 0.6465556 1.0871508e-38
-0.30388936 -0.1884944 0.64706242 1.6043152e-38
-0.29540032 -0.18847817 0.64723074 1.6872202e-38
-0.2853145 -0.1884352 0.64726311 1.7148795e-38
-0.27491039 -0.18805678 0.64693546 1.7148795e-38
-0.26377368 -0.18741401 0.64732146 1.7241348e-38
-0.25512353 -0.18711685 0.6461277 1.733426e-38
-0.24481994 -0.18766941 0.64662856 1.7610129e-38
-0.23549265 -0.18786693 0.64696771 1.7794883e-38
-0.22487214 -0.18801573 0.64638722 1.7979629e-38
-0.21523313 -0.18827394 0.64669228 1.8071826e-38
-0.20512584 -0.18849286 0.6467917 1.8072548e-38
-0.1950675 -0.18835746 0.64711106 1.8164024e-38
-0.18519096 -0.18895468 0.64726311 1.82555e-38
-0.17480129 -0.18806948 0.64703333 1.7980352e-38
-0.1648778 -0.18804319 0.64711767 1.8071833e-38
-0.15501527 -0.18821858 0.6473105 1.807219e-38
-0.14484113 -0.18860178 0.64716673 1.8164026e-38
-0.13525607 -0.18869524 0.64774996 1.825622e-38
-0.12465431 -0.18809651 0.64700001 1.8348416e-38
-0.11559915 -0.18868032 0.64743483 1.8532448e-38
-0.1053 -0.18856251 0.64720833 1.8440973e-38
-0.095294297 -0.18729021 0.64632434 1.8533167e-38
-0.085233308 -0.18766709 0.64632362 1.8625003e-38
-0.074870259 -0.18797468 0.64688224 1.8624998e-38
-0.064684346 -0.18789056 0.64684379 1.8349129e-38
-0.055083126 -0.18812804 0.64674997 1.7979639e-38
-0.044965081 -0.18848006 0.64674997 1.834806e-38
-0.034855366 -0.18794301 0.64660007 1.8532807e-38
-0.36486822 -0.17623821 0.6467647 1.1055173e-38
-0.36804837 -0.14608085 0.64600003 1.1056613e-38
-0.36127442 -0.20432988 0.65262496 8.2907529e-39
-0.3571429 -0.20426385 0.65141672 9.8577465e-39
-0.36116779 -0.19413939 0.65300006 8.4762232e-39
-0.35514477 -0.19524312 0.65369815 1.1703814e-38
-0.34509164 -0.19312778 0.65191126 1.3644264e-38
-0.33613595 -0.19195956 0.65100002 1.3551715e-38
-0.32352725 -0.190869 0.6502223 1.3829014e-38
-0.31670246 -0.19117716 0.6503334 1.4474396e-38
-0.28352383 -0.19066668 0.65000004 1.751614e-38
-0.36362553 -0.18589389 0.65366673 9.5822176e-39
-0.35291556 -0.18644661 0.65710348 1.3183284e-38
-0.34506455 -0.18637624 0.65646297 1.3736457e-38
-0.33495703 -0.1854455 0.65571672 1.3827573e-38
-0.32496756 -0.18506508 0.65415019 1.3827935e-38
-0.31509674 -0.18495087 0.65400004 1.456659e-38
-0.30565467 -0.18411575 0.65382767 1.5857336e-38
-0.29505032 -0.1840824 0.65246451 1.6871849e-38
-0.2852073 -0.18416174 0.65221071 1.7148433e-38
-0.2748912 -0.18332882 0.65228844 1.6965123e-38
-0.26553985 -0.18317544 0.65200013 1.7241348e-38
-0.25453436 -0.18253388 0.65168422 1.7333906e-38
-0.2450626 -0.18274957 0.65143484 1.7426099e-38
-0.23495266 -0.18321449 0.65196007 1.7610491e-38
-0.22515388 -0.18335159 0.65156019 1.7887076e-38
-0.21487859 -0.18362214 0.65241677 1.8164024e-38
-0.2050923 -0.18381287 0.65298265 1.8256219e-38
-0.19513799 -0.18357591 0.65395391 1.834841e-38
-0.18518513 -0.18410003 0.65349996 1.8164023e-38
-0.17535457 -0.18363497 0.65302008 1.8072192e-38
-0.16516632 -0.18339872 0.65279186 1.8164027e-38
-0.15492222 -0.18356967 0.65238464 1.8163664e-38
-0.14501595 -0.18391755 0.65228069 1.807147e-38
-0.13493609 -0.18437038 0.65233886 1.8256221e-38
-0.12489889 -0.18343966 0.65231991 1.8256226e-38
-0.11474087 -0.18384527 0.65218329 1.844025e-38
-0.10510872 -0.18403254 0.65276796 1.8348057e-38
-0.094863884 -0.18280134 0.65223825 1.8440253e-38
-0.085027277 -0.18308309 0.65166682 1.8256943e-38
-0.075099774 -0.18308842 0.65168762 1.8440614e-38
-0.065183893 -0.18313614 0.65185428 1.8532806e-38
-0.055286635 -0.18346891 0.653054 1.8533167e-38
-0.045340408 -0.18383195 0.65212518 1.8625001e-38
-0.035505217 -0.18314812 0.65128005 1.8532804e-38
-0.36786938 -0.17435938 0.65266669 1.0871509e-38
-0.32519856 -0.17878619 0.65791672 1.3828662e-38
-0.31534669 -0.17896982 0.65771437 1.447439e-38
-0.30387193 -0.17835927 0.65721732 1.5857697e-38
-0.29518411 -0.17818208 0.65683872 1.6595258e-38
-0.28487352 -0.17790121 0.65638244 1.7056596e-38
-0.27517298 -0.17771773 0.65695244 1.7056958e-38
-0.26494253 -0.17759939 0.65674359 1.7149154e-38
-0.25472102 -0.1770151 0.65597677 1.7241705e-38
-0.2451801 -0.17692338 0.65625012 1.7425742e-38
-0.2352796 -0.17764278 0.65678585 1.7517938e-38
-0.22487731 -0.17791361 0.6566667 1.788708e-38
-0.21544339 -0.17795841 0.65662855 1.8071829e-38
-0.20513268 -0.17799272 0.65725011 1.8164382e-38
-0.19572681 -0.17882162 0.65750009 1.8164383e-38
-0.1836461 -0.17855085 0.65766674 1.8255498e-38
-0.17512192 -0.17848843 0.65688467 1.8071825e-38
-0.16497508 -0.17816612 0.65675753 1.8164026e-38
-0.15525375 -0.17836578 0.65700001 1.8164022e-38
-0.14485745 -0.1782732 0.65715176 1.825658e-38
-0.13469169 -0.17787455 0.65689194 1.8348057e-38
-0.12504381 -0.17839405 0.6564815 1.8256583e-38
-0.11550527 -0.17834389 0.65683866 1.8348413e-38
-0.10502397 -0.17810819 0.65716118 1.8164024e-38
-0.095033631 -0.17763214 0.65626347 1.8256217e-38
-0.084965676 -0.17711675 0.65661722 1.8164385e-38
-0.07490699 -0.17729032 0.65647638 1.844025e-38
-0.065338179 -0.17763425 0.6569764 1.8440973e-38
-0.054032441 -0.1773394 0.65751433 1.8532808e-38
-0.045731071 -0.17856757 0.65677786 1.862536e-38
-0.034222089 -0.17724146 0.65673822 1.81633e-38
-0.37054288 -0.15283334 0.65500003 1.0779679e-38
-0.36939156 -0.15252191 0.65328574 1.0780036e-38
-0.37058812 -0.1454524 0.65125006 1.0964426e-38
-0.36851674 -0.14474668 0.65227777 1.0872947e-38
-0.36215451 -0.19293566 0.66264296 1.0407301e-38
-0.36407882 -0.18354551 0.66243142 9.0283194e-39
-0.35573119 -0.18292359 0.66158056 1.2075139e-38
-0.34504107 -0.18132921 0.66068184 1.3828289e-38
-0.33704263 -0.18078241 0.66025001 1.3644267e-38
-0.37130532 -0.17320597 0.66437495 1.0503451e-38
-0.36614996 -0.17704074 0.6660614 9.3963928e-39
-0.35460529 -0.17481458 0.66596967 1.3367674e-38
-0.34508902 -0.17490105 0.66504687 1.3828292e-38
-0.33528036 -0.17519338 0.66335279 1.3919769e-38
-0.32507369 -0.17448093 0.66326201 1.392013e-38
-0.31508029 -0.17490421 0.6624999 1.4565868e-38
-0.3050243 -0.17351507 0.6615532 1.5580389e-38
-0.29500818 -0.17348661 0.66194004 1.6503423e-38
-0.28509334 -0.1730016 0.66156089 1.7056959e-38
-0.27521178 -0.17284644 0.66250002 1.7057314e-38
-0.26477835 -0.1727342 0.66194886 1.7149151e-38
-0.25507256 -0.1722884 0.66184837 1.7148794e-38
-0.24490789 -0.17216974 0.66159391 1.7241351e-38
-0.23471235 -0.1727156 0.66177279 1.7333905e-38
-0.22524516 -0.17322691 0.66275018 1.7610493e-38
-0.21479699 -0.17329693 0.66295993 1.788744e-38
-0.20505662 -0.17328723 0.66355556 1.807183e-38
-0.1947723 -0.17426886 0.6625483 1.816402e-38
-0.18533851 -0.17400709 0.66184217 1.8348051e-38
-0.17491075 -0.17353152 0.66260707 1.8256219e-38
-0.1654094 -0.17318587 0.66225523 1.8256226e-38
-0.1550362 -0.17355862 0.66227454 1.8348417e-38
-0.14507179 -0.17338142 0.66228908 1.8348781e-38
-0.13511407 -0.17310452 0.66238654 1.8440251e-38
-0.12494529 -0.17351253 0.66234618 1.844025e-38
-0.11513028 -0.17322956 0.66266054 1.8348414e-38
-0.10517004 -0.17336351 0.66222233 1.8256223e-38
-0.09526708 -0.17282832 0.66161901 1.8256582e-38
-0.085012883 -0.17209613 0.66120583 1.807219e-38
-0.075030528 -0.1723602 0.66129726 1.8348776e-38
-0.064456664 -0.17264564 0.66124994 1.8440613e-38
-0.055329531 -0.17272787 0.66132504 1.8532807e-38
-0.044359047 -0.17380962 0.66151851 1.8532804e-38
-0.035221677 -0.17239223 0.66102707 1.7885628e-38
-0.37152022 -0.16570984 0.66397071 1.0594565e-38
-0.36883387 -0.16663924 0.66680002 9.8580758e-39
-0.35374174 -0.16897027 0.66900009 1.4012671e-38
-0.34423327 -0.16755928 0.66876918 1.3828658e-38
-0.33437142 -0.16709211 0.66771436 1.3920135e-38
-0.32535651 -0.16837938 0.66774195 1.401269e-38
-0.31517071 -0.16753329 0.66802579 1.4656985e-38
-0.30476448 -0.16743398 0.66632527 1.5580387e-38
-0.29522851 -0.1673435 0.66693348 1.6594901e-38
-0.28463691 -0.16763557 0.66748804 1.7056959e-38
-0.27514762 -0.16741857 0.66752505 1.7148796e-38
-0.26495594 -0.16653451 0.66638911 1.7148789e-38
-0.25528929 -0.16727577 0.66688102 1.7333188e-38
-0.24570489 -0.16773356 0.66659474 1.7333545e-38
-0.2352365 -0.16826786 0.66673332 1.7425378e-38
-0.22495919 -0.1681443 0.66736108 1.7518292e-38
-0.21605748 -0.16922545 0.66770595 1.7702323e-38
-0.20341057 -0.16895123 0.66807699 1.8071463e-38
-0.19565706 -0.16883805 0.66742855 1.8071467e-38
-0.18375982 -0.16889556 0.66695011 1.8255853e-38
-0.17609429 -0.16871622 0.66775012 1.8347334e-38
-0.16386315 -0.16882581 0.66761893 1.8347698e-38
-0.15504265 -0.16857107 0.66739285 1.8348414e-38
-0.14513037 -0.16835199 0.66690636 1.8440613e-38
-0.13502315 -0.16860792 0.66717857 1.8532803e-38
-0.1261092 -0.16893455 0.66780955 1.8348053e-38
-0.11473463 -0.16815677 0.66779989 1.8440611e-38
-0.10474772 -0.16815385 0.66742426 1.8164742e-38
-0.094785698 -0.16644661 0.66669834 1.8348414e-38
-0.08508689 -0.16675119 0.66653073 1.8163666e-38
-0.075259052 -0.16723269 0.66723943 1.8256577e-38
-0.065210328 -0.16783942 0.66715807 1.8256939e-38
-0.05519465 -0.16720565 0.66729808 1.8532448e-38
-0.045315605 -0.16727506 0.66700011 1.8348414e-38
-0.37370983 -0.156146 0.66685712 1.0687839e-38
-0.37270123 -0.13346095 0.66186368 1.0963699e-38
-0.36890095 -0.13094096 0.66100001 1.0962967e-38
-0.37215739 -0.12737334 0.66007692 1.0964066e-38
-0.36879647 -0.12764904 0.66025001 1.0780024e-38
-0.37073335 -0.1735619 0.67000002 9.4900206e-39
-0.36577812 -0.17278728 0.6711334 8.9346986e-39
-0.37164691 -0.1639289 0.67238098 9.7651543e-39
-0.36494374 -0.16575962 0.67522228 1.0413437e-38
-0.35507101 -0.16443509 0.67323625 1.4012686e-38
-0.3448745 -0.16278967 0.67177504 1.3919412e-38
-0.33501694 -0.1623023 0.67243737 1.4011604e-38
-0.32475773 -0.16312645 0.67229414 1.4012685e-38
-0.31450891 -0.16250958 0.6724546 1.4474394e-38
-0.30528718 -0.16235058 0.67205703 1.5396712e-38
-0.2945804 -0.16237809 0.67166656 1.6595257e-38
-0.28496483 -0.16234978 0.67114288 1.7240628e-38
-0.27519971 -0.16221724 0.67191672 1.7333182e-38
-0.26439941 -0.16156259 0.67156518 1.7332829e-38
-0.25497356 -0.16208708 0.67148656 1.7333186e-38
-0.24452119 -0.16280788 0.67147732 1.7425736e-38
-0.23488796 -0.16321397 0.67141652 1.7425738e-38
-0.2250146 -0.16285113 0.67174417 1.7517931e-38
-0.21512702 -0.16438931 0.6724754 1.7702322e-38
-0.20526512 -0.16419379 0.67232203 1.7886713e-38
-0.19471705 -0.16381535 0.67369705 1.8071464e-38
-0.18506657 -0.16383414 0.67260379 1.8072183e-38
-0.17492026 -0.16399479 0.67216969 1.8255863e-38
-0.16539024 -0.16381013 0.67171437 1.8164023e-38
-0.15505695 -0.16338496 0.67197955 1.8256219e-38
-0.14492004 -0.16331665 0.67165971 1.825622e-38
-0.1350659 -0.16334468 0.67187989 1.8348414e-38
-0.12488727 -0.16375825 0.67178154 1.844061e-38
-0.11508567 -0.16323008 0.67197865 1.8349133e-38
-0.10536317 -0.16313063 0.67197716 1.8348774e-38
-0.095449768 -0.16139613 0.67086953 1.8440613e-38
-0.084830172 -0.16172497 0.67173338 1.8256219e-38
-0.074210294 -0.16195372 0.67065644 1.8256219e-38
-0.065273613 -0.16233434 0.67076457 1.8348417e-38
-0.055386905 -0.16181366 0.67090625 1.8348056e-38
-0.045216128 -0.16221184 0.67056668 1.8348056e-38
-0.37448663 -0.15466258 0.67414302 1.0319048e-38
-0.36278 -0.15908 0.67900002 1.2813409e-38
-0.35400754 -0.15844485 0.67813331 1.4104882e-38
-0.34456119 -0.15705909 0.67721421 1.3920126e-38
-0.33512679 -0.15700009 0.67788118 1.4011611e-38
-0.3252888 -0.15705681 0.67780453 1.4104883e-38
-0.31470445 -0.15623212 0.67777127 1.447439e-38
-0.30494052 -0.15644793 0.67696083 1.5396714e-38
-0.29530272 -0.15700391 0.67749995 1.6503064e-38
-0.28498551 -0.15731268 0.67669982 1.7149512e-38
-0.27457252 -0.15694651 0.67720926 1.7425738e-38
-0.26500607 -0.15709449 0.67658544 1.7425378e-38
-0.25524628 -0.15789045 0.67750007 1.7517573e-38
-0.24453649 -0.15778688 0.67742878 1.7426094e-38
-0.23495489 -0.15743487 0.67735136 1.7517936e-38
-0.22461236 -0.15823995 0.67685187 1.7609769e-38
-0.21547797 -0.158344 0.6777038 1.7517932e-38
-0.20500748 -0.15875602 0.67762512 1.7978551e-38
-0.19572261 -0.15871653 0.67845458 1.8071466e-38
-0.18418789 -0.15818214 0.67716002 1.807147e-38
-0.17514843 -0.15848756 0.67716664 1.7980353e-38
-0.16480546 -0.1578427 0.67666668 1.8164027e-38
-0.15510304 -0.15767795 0.67658818 1.8255857e-38
-0.1445462 -0.15779524 0.67662513 1.8348057e-38
-0.13488564 -0.15727021 0.67707705 1.8348057e-38
-0.1249584 -0.15747395 0.67652935 1.8348417e-38
-0.11534829 -0.15771373 0.6765151 1.8440251e-38
-0.10465585 -0.15717202 0.67665005 1.8348416e-38
-0.094551675 -0.15638754 0.67642319 1.8348777e-38
-0.084787719 -0.15589401 0.67674065 1.8440254e-38
-0.075176165 -0.15711947 0.67616284 1.8348414e-38
-0.065133378 -0.15715155 0.67666662 1.8348776e-38
-0.054630015 -0.15709385 0.67715561 1.844061e-38
-0.044896673 -0.1565025 0.67577547 1.8348416e-38
-0.37761757 -0.14510605 0.67578793 1.0780028e-38
-0.37696573 -0.13868055 0.67414296 1.0779687e-38
-0.37183601 -0.16316314 0.68173921 8.5659161e-39
-0.36830434 -0.16303049 0.6811111 8.567365e-39
-0.3729555 -0.15462944 0.6837334 8.9364811e-39
-0.36471543 -0.15488367 0.68470597 1.2443558e-38
-0.35582179 -0.15397592 0.68302387 1.4105241e-38
-0.34533405 -0.15265176 0.68141925 1.3920132e-38
-0.3350473 -0.15199466 0.68178266 1.3920129e-38
-0.32505423 -0.15214379 0.6812501 1.4195645e-38
-0.31582358 -0.15149955 0.68042111 1.4473667e-38
-0.30452898 -0.15158598 0.68072742 1.5213043e-38
-0.29446468 -0.1521931 0.68167871 1.6503423e-38
-0.28479347 -0.1527489 0.68222594 1.7240626e-38
-0.27506682 -0.15231912 0.68192315 1.7425738e-38
-0.26451212 -0.15244643 0.68165529 1.7609407e-38
-0.25514236 -0.15324193 0.68197221 1.7518289e-38
-0.24537046 -0.15289855 0.68188918 1.7610128e-38
-0.23470733 -0.15252326 0.68306988 1.7610486e-38
-0.22490038 -0.15318051 0.6833725 1.7609772e-38
-0.21475652 -0.15359463 0.68397993 1.7610126e-38
-0.20488372 -0.15361346 0.68359262 1.779488e-38
-0.19504493 -0.15414201 0.68384475 1.8071463e-38
-0.18496691 -0.15312849 0.68297964 1.8163663e-38
-0.17486286 -0.15340585 0.68255764 1.816366e-38
-0.16522363 -0.15302271 0.68250018 1.8163666e-38
-0.15489829 -0.15289524 0.68253666 1.8071822e-38
-0.14533854 -0.15301536 0.68144447 1.8347697e-38
-0.13488579 -0.15246245 0.68208832 1.8256223e-38
-0.12510222 -0.1526904 0.68233329 1.8164386e-38
-0.11472561 -0.15310088 0.68178928 1.8348416e-38
-0.10535333 -0.15246332 0.68164277 1.8256216e-38
-0.095569812 -0.15159009 0.68080008 1.8164742e-38
-0.084926069 -0.15104714 0.68068749 1.8256583e-38
-0.074867591 -0.15204276 0.68074083 1.8348774e-38
-0.064833656 -0.15234976 0.6812591 1.8349135e-38
-0.05550994 -0.1521661 0.68114299 1.8440607e-38
-0.044296484 -0.15189762 0.68134797 1.8440243e-38
-0.38146544 -0.14261207 0.68900001 1.0319407e-38
-0.37629172 -0.14642449 0.68304545 9.7669452e-39
-0.36221716 -0.14808032 0.68900007 1.4380737e-38
-0.35450271 -0.14671016 0.68719989 1.392156e-38
-0.34522563 -0.14763677 0.6856218 1.3920842e-38
-0.3351036 -0.14688647 0.68597776 1.410416e-38
-0.32490385 -0.14687996 0.68527657 1.4196356e-38
-0.31488946 -0.14720349 0.68502581 1.4656988e-38
-0.30527401 -0.14706174 0.68511641 1.5395632e-38
-0.29512861 -0.14766796 0.68623263 1.6319031e-38
-0.2848179 -0.14792645 0.68644446 1.6964398e-38
-0.27461648 -0.14699355 0.68600023 1.7333539e-38
-0.26485056 -0.14710784 0.68602103 1.7425735e-38
-0.25554967 -0.14779955 0.68688232 1.7426457e-38
-0.24497196 -0.14754553 0.68623251 1.7610488e-38
-0.23588882 -0.14769502 0.68830776 1.770232e-38
-0.22452651 -0.14917399 0.68900007 1.7794152e-38
-0.21509823 -0.1488622 0.68857157 1.7702678e-38
-0.20527405 -0.14887382 0.6886251 1.7703044e-38
-0.19473575 -0.1482767 0.68857908 1.8163296e-38
-0.1855787 -0.14773567 0.68774092 1.8164019e-38
-0.17465375 -0.14747545 0.68757159 1.8164385e-38
-0.16445521 -0.14719991 0.68670273 1.8255497e-38
-0.15529716 -0.14756539 0.68712515 1.816402e-38
-0.14471145 -0.14741907 0.68641454 1.816438e-38
-0.13519149 -0.14742239 0.68692523 1.8164022e-38
-0.12489434 -0.14687352 0.68695015 1.8164383e-38
-0.11507449 -0.14747471 0.68612844 1.8348413e-38
-0.10480013 -0.14737877 0.68590486 1.8348053e-38
-0.094955206 -0.14652346 0.68529803 1.8256576e-38
-0.085131213 -0.14678806 0.6853618 1.8440248e-38
-0.074743301 -0.14607945 0.68500006 1.8348412e-38
-0.064985573 -0.14658873 0.68550014 1.8440613e-38
-0.055049978 -0.14637606 0.68556875 1.8440607e-38
-0.045389313 -0.14707632 0.68527281 1.8164009e-38
-0.38237366 -0.13773268 0.68866676 1.0870054e-38
-0.37932193 -0.13899811 0.68200004 1.0687475e-38
-0.3749049 -0.1510794 0.69349992 9.1194444e-39
-0.36931431 -0.15114287 0.69000006 8.9394252e-39
-0.3809143 -0.14209357 0.69144446 9.9509861e-39
-0.37613791 -0.14515595 0.69590908 8.7517577e-39
-0.36495239 -0.14428702 0.69195855 1.4012323e-38
-0.35538852 -0.14228337 0.69121462 1.4104162e-38
-0.34516981 -0.14264627 0.69105738 1.4104519e-38
-0.33484417 -0.14164512 0.69210351 1.4379662e-38
-0.32484096 -0.14218453 0.69091672 1.4380384e-38
-0.31486896 -0.14210144 0.69150019 1.4841735e-38
-0.30457196 -0.1420214 0.69175774 1.5488544e-38
-0.29485378 -0.14247148 0.69225657 1.6410866e-38
-0.2851781 -0.14269206 0.69262183 1.6964758e-38
-0.27488044 -0.14221007 0.69156003 1.7333542e-38
-0.26476952 -0.1419203 0.69281822 1.7517928e-38
-0.25478891 -0.14274919 0.69242126 1.7518289e-38
-0.24496374 -0.14228354 0.69254082 1.7794159e-38
-0.23410699 -0.14324772 0.69255322 1.779452e-38
-0.22488418 -0.14406373 0.69238913 1.7702318e-38
-0.21506058 -0.14384776 0.69300008 1.788671e-38
-0.20491324 -0.14396082 0.69307417 1.7886712e-38
-0.19526628 -0.14336893 0.69340014 1.8071104e-38
-0.18464524 -0.14294925 0.69253498 1.8255498e-38
-0.17504506 -0.1425824 0.69230777 1.8439891e-38
-0.16539238 -0.14221279 0.69230318 1.8440247e-38
-0.15492398 -0.14254393 0.69264299 1.834805e-38
-0.14517772 -0.14237912 0.69308829 1.8440247e-38
-0.13495794 -0.14224733 0.69244123 1.8348051e-38
-0.12484644 -0.1419182 0.69290632 1.8348056e-38
-0.11483809 -0.14233038 0.69208586 1.844061e-38
-0.10560917 -0.14226234 0.69196886 1.825622e-38
-0.094822191 -0.14196907 0.69045013 1.8440246e-38
-0.084881485 -0.14190689 0.69040936 1.816438e-38
-0.075807922 -0.1414932 0.69076937 1.843953e-38
-0.064767011 -0.14197215 0.69072741 1.807219e-38
-0.05413143 -0.14119583 0.69150013 1.8348769e-38
-0.044421613 -0.14262465 0.69061559 1.7237733e-38
-0.38302428 -0.13474131 0.69483787 1.0134646e-38
-0.3755888 -0.13784286 0.69587499 1.0045714e-38
-0.36373496 -0.13673992 0.69677418 1.4013404e-38
-0.35477901 -0.13580364 0.69645834 1.4104526e-38
-0.34464449 -0.13668254 0.69491118 1.4105238e-38
-0.3351517 -0.1361586 0.69560468 1.4288907e-38
-0.3247734 -0.13594031 0.69563639 1.4288916e-38
-0.31570327 -0.13668945 0.69602638 1.4658417e-38
-0.30494067 -0.13722062 0.69606251 1.5396349e-38
-0.29504818 -0.13734297 0.6959644 1.641122e-38
-0.28506663 -0.13714454 0.69609374 1.7056594e-38
-0.2753922 -0.13764229 0.69553858 1.751757e-38
-0.26489922 -0.1377859 0.69695848 1.7518649e-38
-0.25520322 -0.13745755 0.69644827 1.7610846e-38
-0.24477309 -0.1379474 0.69668198 1.7610129e-38
-0.23508444 -0.13829245 0.69747627 1.7611202e-38
-0.22517748 -0.1385141 0.69700009 1.7703041e-38
-0.21464066 -0.13910684 0.69775003 1.7886713e-38
-0.20438997 -0.13835777 0.69773686 1.7979266e-38
-0.19499353 -0.13820714 0.69735003 1.8071106e-38
-0.18512294 -0.13799149 0.69740021 1.8255857e-38
-0.17493716 -0.13776901 0.6968751 1.8440253e-38
-0.16493355 -0.13769686 0.69685197 1.8440604e-38
-0.15466732 -0.1376192 0.69740021 1.8440966e-38
-0.14456701 -0.13719419 0.69754845 1.853316e-38
-0.13526782 -0.13704978 0.69740009 1.844061e-38
-0.12529799 -0.13769463 0.6973334 1.8348414e-38
-0.114469 -0.13725004 0.69696784 1.8532799e-38
-0.10468265 -0.13626324 0.69604361 1.8440611e-38
-0.094799794 -0.1360309 0.6955716 1.8532807e-38
-0.085182205 -0.13616131 0.69526821 1.8348772e-38
-0.074751452 -0.13602518 0.69554245 1.8256576e-38
-0.065132521 -0.13687609 0.69500029 1.816402e-38
-0.055208337 -0.13647413 0.69564599 1.8440246e-38
-0.045307741 -0.13577941 0.69484633 1.7144096e-38
-0.38649368 -0.12523575 0.69770586 1.0778953e-38
-0.38652864 -0.11534218 0.69680655 1.0779317e-38
-0.38851926 -0.10546476 0.69517642 1.0778962e-38
-0.39032 -0.090941906 0.69700003 1.0410171e-38
-0.38759717 -0.093260966 0.69450009 1.0410891e-38
-0.38000003 -0.14 0.70000005 7.5581793e-39
-0.37772107 -0.1415706 0.70044446 1.0408001e-38
-0.38248575 -0.13402815 0.70300007 9.1212227e-39
-0.37496972 -0.13482584 0.70319057 1.0506368e-38
-0.36627129 -0.13249987 0.70130771 1.4104519e-38
-0.35468179 -0.13138001 0.70025003 1.4012683e-38
-0.34538668 -0.13170914 0.70112503 1.4197073e-38
-0.33547783 -0.13150361 0.70142871 1.4288912e-38
-0.32435414 -0.13139945 0.70035714 1.4381107e-38
-0.31456029 -0.1319685 0.70162517 1.4750258e-38
-0.30501539 -0.13269395 0.70113891 1.5488542e-38
-0.29485127 -0.13228607 0.70172983 1.6319022e-38
-0.28519028 -0.13228244 0.70211118 1.7056594e-38
-0.27474391 -0.13252831 0.70226341 1.7425372e-38
-0.26526389 -0.13293712 0.70153666 1.7610486e-38
-0.25464234 -0.13268265 0.70205015 1.7702326e-38
-0.24509263 -0.13326921 0.70306271 1.7610486e-38
-0.23500127 -0.13344389 0.70295572 1.7702683e-38
-0.22502425 -0.13382259 0.70328838 1.7794873e-38
-0.21494353 -0.13415645 0.70285696 1.7887073e-38
-0.2048519 -0.13342929 0.70263851 1.7979269e-38
-0.19497474 -0.13338777 0.70282239 1.8070746e-38
-0.18497585 -0.13299434 0.70226198 1.8164019e-38
-0.17502761 -0.13293178 0.70254564 1.8440246e-38
-0.16491583 -0.13281155 0.70220023 1.8440607e-38
-0.15511972 -0.13255335 0.70221061 1.8624641e-38
-0.14520974 -0.13210671 0.70179999 1.8716478e-38
-0.13482912 -0.13224059 0.70176679 1.8716475e-38
-0.1249363 -0.13294846 0.70129424 1.844061e-38
-0.11581037 -0.13287394 0.70145178 1.8624637e-38
-0.10472394 -0.13140357 0.70037496 1.8717191e-38
-0.095456287 -0.13123637 0.70045453 1.8625003e-38
-0.083806835 -0.13115779 0.70024991 1.8532803e-38
-0.07554134 -0.13119733 0.70069999 1.8440253e-38
-0.064357407 -0.13198955 0.70059097 1.8532447e-38
-0.054802116 -0.13170065 0.70077783 1.8532448e-38
-0.384936 -0.12567076 0.7034412 9.7662333e-39
-0.37337905 -0.12895237 0.7076667 1.2629026e-38
-0.36353177 -0.12680535 0.70668966 1.3920482e-38
-0.35496661 -0.12530228 0.70542645 1.4012686e-38
-0.3453567 -0.12654647 0.70550019 1.410488e-38
-0.33488169 -0.12612404 0.70558715 1.4288914e-38
-0.3245565 -0.12700213 0.7054286 1.4473301e-38
-0.31501892 -0.12552714 0.70627111 1.4749892e-38
-0.3049446 -0.12679626 0.70612508 1.5304152e-38
-0.29542682 -0.1275236 0.70660728 1.6226107e-38
-0.28505984 -0.12795696 0.70713639 1.7056594e-38
-0.27519366 -0.12778948 0.70657152 1.7425731e-38
-0.26510137 -0.12821153 0.70595002 1.7609765e-38
-0.25509226 -0.12868227 0.70649999 1.7794515e-38
-0.24487317 -0.12863389 0.70740014 1.7702322e-38
-0.2356357 -0.12896207 0.70727271 1.7886353e-38
-0.22489335 -0.12928 0.70700008 1.7795234e-38
-0.21478517 -0.12917079 0.70722222 1.7979626e-38
-0.20498289 -0.12946285 0.70800006 1.8071106e-38
-0.19485039 -0.12900062 0.70711118 1.8070388e-38
-0.18461578 -0.1287896 0.70699996 1.81633e-38
-0.17482646 -0.12828955 0.70635295 1.8348046e-38
-0.16489249 -0.12838003 0.70668751 1.8440607e-38
-0.1552825 -0.1274848 0.70653862 1.8624638e-38
-0.14437538 -0.12757199 0.70680004 1.8716835e-38
-0.13456577 -0.12749918 0.70625019 1.8717191e-38
-0.12466488 -0.12765785 0.70614314 1.8716832e-38
-0.11464936 -0.12747869 0.70600015 1.8900506e-38
-0.10473065 -0.12669738 0.70510632 1.880975e-38
-0.094853327 -0.12581204 0.70518202 1.880939e-38
-0.084981896 -0.1263026 0.70503783 1.8716835e-38
-0.075139061 -0.1263431 0.70567989 1.8717194e-38
-0.064758554 -0.12697519 0.70513058 1.8624637e-38
-0.055081367 -0.12704512 0.70574373 1.8533164e-38
-0.39077145 -0.11011429 0.70500004 1.0778599e-38
-0.38690883 -0.11452022 0.70472008 1.0318692e-38
-0.39152274 -0.10503934 0.70635712 1.077859e-38
-0.38922897 -0.10795734 0.70320004 1.0594929e-38
-0.39168248 -0.095835522 0.70578587 1.0410881e-38
-0.38946795 -0.093254611 0.7026667 1.0226486e-38
-0.38164088 -0.13137184 0.71022224 8.8432387e-39
-0.38363975 -0.12444238 0.71299988 8.9354049e-39
-0.37485304 -0.12431312 0.71107149 1.2167688e-38
-0.36643073 -0.1229184 0.71040004 1.3828289e-38
-0.35144728 -0.12093677 0.71020001 1.4196723e-38
-0.34517595 -0.12173304 0.71094751 1.4288197e-38
-0.33469862 -0.12154657 0.71110541 1.428856e-38
-0.32646096 -0.12247583 0.71050012 1.4289637e-38
-0.31405088 -0.12110758 0.71158838 1.4750613e-38
-0.30439496 -0.12222999 0.71104181 1.5397067e-38
-0.29461178 -0.12272034 0.71123552 1.6134633e-38
-0.28546411 -0.12302826 0.7120477 1.6872558e-38
-0.27489451 -0.12281486 0.71233338 1.7425729e-38
-0.26500013 -0.12345284 0.71308339 1.7610485e-38
-0.25478706 -0.12355313 0.71209621 1.7702318e-38
-0.24480592 -0.12340166 0.71273082 1.7702318e-38
-0.23475605 -0.12407771 0.71299994 1.788671e-38
-0.22493522 -0.1243747 0.71322042 1.7978907e-38
-0.2149996 -0.12410794 0.7134558 1.7795595e-38
-0.2050011 -0.12443208 0.71323359 1.8162937e-38
-0.19490348 -0.12416591 0.71254718 1.8163297e-38
-0.18520683 -0.12421282 0.71185714 1.8163297e-38
-0.17496251 -0.12386707 0.71166664 1.8348049e-38
-0.16516422 -0.12388583 0.711317 1.8440603e-38
-0.15446648 -0.12288996 0.71154046 1.8716834e-38
-0.14552563 -0.12292234 0.71180564 1.8809028e-38
-0.1350098 -0.12241942 0.71070009 1.880939e-38
-0.12497486 -0.12270198 0.71067721 1.8901582e-38
-0.11506456 -0.12232789 0.71007395 1.8901224e-38
-0.10560495 -0.12157076 0.71035016 1.8901582e-38
-0.095453851 -0.12091532 0.71036369 1.8809391e-38
-0.085296601 -0.1213279 0.7100001 1.8901221e-38
-0.074652061 -0.12133905 0.71044451 1.880939e-38
-0.065413609 -0.12205399 0.71123827 1.8809746e-38
-0.054613616 -0.12226642 0.71088898 1.8532801e-38
-0.39031935 -0.11386159 0.71733338 9.4896521e-39
-0.38590342 -0.11547939 0.71672732 8.8425072e-39
-0.37476486 -0.1150825 0.71636957 1.3366947e-38
-0.36495188 -0.11560702 0.71518207 1.3920128e-38
-0.35491881 -0.11567557 0.7154209 1.4104519e-38
-0.34468609 -0.11643088 0.7156955 1.4196717e-38
-0.33451015 -0.11621388 0.71608323 1.4197077e-38
-0.32517502 -0.11660971 0.71565002 1.4289273e-38
-0.31470239 -0.11698833 0.71548718 1.4749894e-38
-0.30482861 -0.1164033 0.71575004 1.5395985e-38
-0.29504475 -0.11676905 0.71673161 1.604208e-38
-0.28488091 -0.11669692 0.71682346 1.6871841e-38
-0.2752279 -0.11748173 0.71754169 1.7424655e-38
-0.26486865 -0.11694717 0.7173332 1.7610485e-38
-0.25517276 -0.11761844 0.71727264 1.7702681e-38
-0.24488994 -0.11746119 0.71741664 1.7702678e-38
-0.23513201 -0.11770171 0.71769994 1.7795235e-38
-0.22456455 -0.11742611 0.71804762 1.8070741e-38
-0.21534418 -0.11770856 0.7178182 1.7886707e-38
-0.20537111 -0.11841221 0.71799994 1.8163297e-38
-0.19478627 -0.11767668 0.71730435 1.8255496e-38
-0.18454149 -0.11763605 0.71680647 1.8255853e-38
-0.1748479 -0.11809869 0.7163794 1.8439885e-38
-0.16498305 -0.11743468 0.71668583 1.8532441e-38
-0.15490685 -0.11735288 0.71688884 1.8716471e-38
-0.14455692 -0.11703214 0.71661276 1.8900861e-38
-0.13508978 -0.11729029 0.71558326 1.8901224e-38
-0.12499009 -0.11664364 0.71566653 1.8901584e-38
-0.1148425 -0.11710886 0.71494859 1.8993419e-38
-0.10456313 -0.11588772 0.71529794 1.8993417e-38
-0.095306493 -0.11596146 0.71542865 1.8901944e-38
-0.08471702 -0.11559377 0.71498108 1.8993778e-38
-0.075186037 -0.11589757 0.71504086 1.8993777e-38
-0.065091304 -0.11645063 0.71593332 1.9085614e-38
-0.05483928 -0.11601309 0.71563476 1.7146634e-38
-0.39155769 -0.10427333 0.71471864 9.858436e-39
-0.38755184 -0.10622233 0.71700001 8.8439351e-39
-0.37707561 -0.10956191 0.71900004 1.2815209e-38
-0.38745782 -0.12090923 0.72133344 1.0042837e-38
-0.39098287 -0.11612001 0.72150004 8.8439211e-39
-0.38675696 -0.11512275 0.72205883 9.580431e-39
-0.37645715 -0.11314286 0.72000003 1.3274757e-38
-0.36480591 -0.11065399 0.72091687 1.41038e-38
-0.35327411 -0.11073059 0.72166675 1.42889e-38
-0.34485519 -0.11120419 0.72118199 1.4196717e-38
-0.33512124 -0.11095173 0.72123545 1.428891e-38
-0.32441658 -0.11180303 0.72157699 1.438111e-38
-0.31612095 -0.11204224 0.72250003 1.4749539e-38
-0.30492529 -0.11172339 0.72311538 1.5395985e-38
-0.29473042 -0.11205663 0.7233333 1.6226107e-38
-0.28468168 -0.11173552 0.72243994 1.6687804e-38
-0.27521533 -0.11292209 0.72205395 1.7148429e-38
-0.26484549 -0.11241396 0.72278118 1.7425729e-38
-0.25517249 -0.11294612 0.72340548 1.770196e-38
-0.24513876 -0.11294224 0.72314286 1.7794153e-38
-0.23466885 -0.11307851 0.72269988 1.7886705e-38
-0.2253359 -0.11309613 0.72362858 1.7978906e-38
-0.214772 -0.11307087 0.72351283 1.7979258e-38
-0.20498946 -0.11399613 0.72376084 1.8164015e-38
-0.19465223 -0.11279208 0.72191167 1.8348403e-38
-0.18506128 -0.11253412 0.7221213 1.8348047e-38
-0.17499311 -0.11275172 0.72166651 1.8440244e-38
-0.16503678 -0.11234341 0.72223336 1.853244e-38
-0.15526648 -0.11206066 0.72203445 1.8716474e-38
-0.14501268 -0.11202288 0.72163332 1.8993054e-38
-0.13496388 -0.11215062 0.722 1.8993418e-38
-0.12485113 -0.11150571 0.72162509 1.8993419e-38
-0.11482265 -0.11187626 0.72132146 1.9085614e-38
-0.10739525 -0.11165029 0.72100013 1.9085612e-38
-0.094057389 -0.11135011 0.72053349 1.9085974e-38
-0.086711124 -0.11118793 0.72066677 1.9178168e-38
-0.073818319 -0.11088646 0.72076941 1.8994138e-38
-0.065507159 -0.11151099 0.72042125 1.8994138e-38
-0.054214895 -0.11080971 0.72145462 1.5672174e-38
-0.37483075 -0.10540853 0.72322047 1.3643174e-38
-0.36485514 -0.10530826 0.72444642 1.4195991e-38
-0.35493115 -0.10512213 0.72511554 1.4196713e-38
-0.34483504 -0.10496429 0.72566682 1.4288913e-38
-0.3346988 -0.10555747 0.72610873 1.4381109e-38
-0.32482377 -0.10551237 0.72618383 1.4472945e-38
-0.31503564 -0.10682911 0.72754556 1.4749888e-38
-0.30557659 -0.10665336 0.72747219 1.5211594e-38
-0.29473522 -0.10601263 0.72769243 1.5949524e-38
-0.28504092 -0.10654058 0.72711909 1.6594894e-38
-0.27478978 -0.10678282 0.72752941 1.7056947e-38
-0.26524955 -0.10753617 0.72796291 1.7241339e-38
-0.25554615 -0.10781942 0.72823077 1.7426448e-38
-0.24534123 -0.10816382 0.72845459 1.7609766e-38
-0.23506173 -0.10758567 0.72850007 1.7885993e-38
-0.2249198 -0.10851261 0.72862506 1.7978549e-38
-0.2155602 -0.10805119 0.72808689 1.8070743e-38
-0.2052419 -0.10810745 0.72849995 1.8163657e-38
-0.19509692 -0.10669038 0.72745723 1.8347688e-38
-0.18521222 -0.10662961 0.72730571 1.8440244e-38
-0.17486814 -0.10682881 0.72737855 1.8624275e-38
-0.16521834 -0.10619684 0.72748727 1.8624634e-38
-0.15483394 -0.10688271 0.72700018 1.8716832e-38
-0.14503042 -0.10579106 0.72700018 1.8809744e-38
-0.13499562 -0.10591608 0.72690481 1.8993421e-38
-0.12484617 -0.10628743 0.72673815 1.9177448e-38
-0.11474822 -0.10529505 0.72619158 1.9085972e-38
-0.10481967 -0.10544606 0.72494453 1.9177808e-38
-0.095126219 -0.10520942 0.72494537 1.9177809e-38
-0.085000657 -0.10538362 0.72414309 1.9270001e-38
-0.07517729 -0.10537931 0.72494662 1.9178527e-38
-0.06484542 -0.10547723 0.72521168 1.9270362e-38
-0.056064613 -0.10667414 0.72559464 1.576369e-38
-0.34992 -0.099977143 0.72900003 1.4289267e-38
-0.10483715 -0.099977143 0.72900003 1.9546226e-38
-0.08192572 -0.099977143 0.72900003 1.9362199e-38
-0.079148576 -0.099977143 0.72900003 1.9270724e-38
-0.34531048 -0.10025143 0.73100007 1.4472583e-38
-0.33625922 -0.10086587 0.73124999 1.4380747e-38
-0.32369199 -0.10116627 0.73114288 1.4565135e-38
-0.31520393 -0.10201805 0.73152179 1.4749895e-38
-0.30484578 -0.10220476 0.73231822 1.5395985e-38
-0.29600617 -0.10153658 0.73141176 1.5857329e-38
-0.28461516 -0.10160799 0.73175013 1.650377e-38
-0.27452141 -0.10203722 0.73174995 1.7056944e-38
-0.2646943 -0.10263881 0.73284394 1.7333528e-38
-0.25454238 -0.10307071 0.73312497 1.7517922e-38
-0.24499957 -0.10330151 0.73291177 1.7425729e-38
-0.23476443 -0.10263132 0.73258632 1.7794509e-38
-0.22520615 -0.10370241 0.73340487 1.7887066e-38
-0.21459973 -0.1034536 0.73341179 1.816329e-38
-0.20523882 -0.10320422 0.73284382 1.8071097e-38
-0.19522567 -0.10179437 0.7320953 1.8070743e-38
-0.18529515 -0.10170276 0.73142862 1.84406e-38
-0.17560689 -0.10186078 0.73169583 1.862499e-38
-0.16393332 -0.10183039 0.73185009 1.871683e-38
-0.15519518 -0.10192156 0.7316364 1.8624635e-38
-0.14490668 -0.1010162 0.73150003 1.8809023e-38
-0.13510136 -0.10097702 0.73121428 1.9084896e-38
-0.12573254 -0.10138902 0.73152947 1.9085612e-38
-0.11593016 -0.10060656 0.73133337 1.9269642e-38
-0.10512476 -0.10025143 0.73100001 1.9362195e-38
-0.094681904 -0.10025143 0.73100007 1.9362198e-38
-0.086049139 -0.10025143 0.73100001 1.945403e-38
-0.07449238 -0.10025143 0.73100007 1.9178527e-38
-0.064919755 -0.10042548 0.73100001 1.9546949e-38
-0.31558993 -0.097366884 0.73638719 1.4750611e-38
-0.30479187 -0.097280197 0.73760617 1.5304149e-38
-0.2949751 -0.097007617 0.73709679 1.5950241e-38
-0.28509691 -0.097025812 0.73633337 1.6687803e-38
-0.27486658 -0.098297566 0.73677284 1.7240978e-38
-0.26496992 -0.098448031 0.73726326 1.7425366e-38
-0.25512329 -0.098191462 0.73740929 1.7609758e-38
-0.24510755 -0.099026553 0.73743761 1.7609399e-38
-0.23488368 -0.098965429 0.73738474 1.7794503e-38
-0.22485657 -0.098522484 0.73735017 1.79789e-38
-0.2154042 -0.098787755 0.73762512 1.8071456e-38
-0.20463799 -0.09871643 0.73775005 1.8071095e-38
-0.1945069 -0.097272135 0.73738706 1.825549e-38
-0.18459474 -0.096991934 0.73672742 1.8531361e-38
-0.17491344 -0.097299397 0.73680025 1.8532081e-38
-0.16495247 -0.096622504 0.73694599 1.8532437e-38
-0.15493859 -0.096443035 0.73670745 1.8624275e-38
-0.14467613 -0.09634155 0.73707509 1.8624994e-38
-0.13479561 -0.096246734 0.73642868 1.8993418e-38
-0.12481713 -0.096061751 0.73628575 1.9177805e-38
-0.11523042 -0.096253686 0.73709762 1.9270003e-38
-0.10500435 -0.094789162 0.73611093 1.9270362e-38
-0.095014662 -0.094454266 0.73473233 1.9362556e-38
-0.08505334 -0.094411172 0.73515511 1.9362556e-38
-0.074929401 -0.094528779 0.73531014 1.9362556e-38
-0.06505736 -0.094776526 0.73542595 1.8348406e-38
-0.057803567 -0.097235434 0.73420012 1.1513329e-38
-0.092902862 -0.088679999 0.73900002 1.9546227e-38
-0.087976187 -0.088679999 0.73900002 1.9638063e-38
-0.076011434 -0.088679999 0.73900002 1.9454028e-38
-0.067565717 -0.088679999 0.73900002 1.954659e-38
-0.29495448 -0.092221461 0.74091291 1.6042433e-38
-0.28458038 -0.09235166 0.74185717 1.6687804e-38
-0.27498731 -0.093252033 0.74147046 1.7240978e-38
-0.26515195 -0.093441665 0.74187183 1.7701595e-38
-0.25465479 -0.093182638 0.74157125 1.7886347e-38
-0.24509871 -0.094238229 0.74302274 1.7794512e-38
-0.23491696 -0.093953907 0.74348849 1.8070739e-38
-0.22490151 -0.09372279 0.74338895 1.8254773e-38
-0.21471024 -0.094022915 0.74232507 1.8071099e-38
-0.20507436 -0.09369529 0.74158973 1.80711e-38
-0.1951897 -0.092227049 0.7412799 1.8347683e-38
-0.1851787 -0.092034951 0.74139124 1.8347688e-38
-0.17520732 -0.092326306 0.74134612 1.8440244e-38
-0.16520433 -0.091547668 0.74063152 1.8532437e-38
-0.1549544 -0.091330402 0.74035281 1.8532078e-38
-0.1457931 -0.091285251 0.74087489 1.8532801e-38
-0.13543744 -0.091136515 0.74066657 1.8809385e-38
-0.12544763 -0.090914287 0.73999995 1.9085609e-38
-0.11529904 -0.091055229 0.73999995 1.9361839e-38
-0.10994286 -0.090914279 0.74000001 1.9270005e-38
-0.098666668 -0.090209521 0.74000001 1.9362199e-38
-0.062019046 -0.091619045 0.74000001 1.2253121e-38
-0.0592 -0.091619045 0.74000001 1.059783e-38
-0.27519298 -0.087136924 0.74653107 1.7425005e-38
-0.26488394 -0.087062158 0.74703133 1.7793792e-38
-0.25553748 -0.087785169 0.74687505 1.8163648e-38
-0.24480784 -0.088087469 0.74741662 1.8255487e-38
-0.2351501 -0.087666668 0.74770361 1.8346963e-38
-0.22495018 -0.088539377 0.74772221 1.825513e-38
-0.21477568 -0.088107973 0.74718189 1.8162929e-38
-0.20414545 -0.08729212 0.74650019 1.8347317e-38
-0.19482705 -0.086605065 0.74611771 1.8439877e-38
-0.18502825 -0.086684041 0.74608564 1.8532076e-38
-0.17508008 -0.086684093 0.74608576 1.8532074e-38
-0.16505712 -0.086643539 0.74574292 1.8439881e-38
-0.15522514 -0.086968921 0.74557573 1.8531715e-38
-0.14453401 -0.086545527 0.7456001 1.8716109e-38
-0.13492951 -0.085986197 0.74546343 1.8440602e-38
-0.12467229 -0.085590661 0.7447502 1.8901577e-38
-0.11494669 -0.085137792 0.74502039 1.9270001e-38
-0.10477592 -0.084944986 0.74334693 1.9546225e-38
-0.095020533 -0.084725425 0.74384797 1.9546226e-38
-0.084871598 -0.084831066 0.7439363 1.9546227e-38
-0.075175516 -0.084791608 0.74466664 1.9454751e-38
-0.064916916 -0.085746251 0.74335885 1.5026116e-38
