# .PCD v0.7 - Point Cloud Data file format
VERSION 0.7
FIELDS x y z rgb
SIZE 4 4 4 4
TYPE F F F F
COUNT 1 1 1 1
WIDTH 979
HEIGHT 1
VIEWPOINT 0 0 0 0 1 0 0
POINTS 979
DATA ascii
-0.26908898 -0.13938612 0.58342862 1.0409802e-38
0.12268298 -0.13866964 0.58555561 1.8071099e-38
-0.28174794 -0.12245481 0.58496779 1.0225778e-38
-0.27756587 -0.12692794 0.58705717 1.0225395e-38
-0.29055241 -0.1104762 0.58000004 1.0317954e-38
-0.28639603 -0.11518424 0.58503181 1.0409801e-38
-0.29314137 -0.1046206 0.58425373 1.0133575e-38
-0.28927979 -0.10880508 0.58688891 1.0318321e-38
-0.30271804 -0.091950484 0.58388001 9.7655005e-39
-0.29765552 -0.096981101 0.58507508 1.0041377e-38
-0.30679527 -0.085664488 0.58375371 9.7654963e-39
-0.31426901 -0.07518512 0.5830698 9.7651487e-39
-0.30966032 -0.079446986 0.58200002 9.8569814e-39
-0.051192932 -0.020825852 0.58428574 1.1891054e-38
-0.044651374 -0.024730323 0.58460009 1.1891068e-38
-0.060377143 -0.01397619 0.58700001 7.6598365e-39
-0.055324182 -0.016899312 0.58516651 1.1799596e-38
-0.048719049 -0.01904 0.58800006 1.1890341e-38
-0.12128381 0.019937143 0.58150005 8.4808909e-39
-0.11649182 0.018934859 0.58246678 6.0816522e-39
-0.13274144 0.028271431 0.58349997 9.9538742e-39
-0.12512901 0.024929741 0.58528298 8.6634913e-39
-0.11750381 0.022897145 0.58627772 5.9890824e-39
-0.13615865 0.032698702 0.58571804 1.0229744e-38
-0.12992001 0.030239999 0.588 9.585456e-39
-0.034032859 0.097944766 0.58225 1.2811574e-38
-0.027434923 0.095009536 0.58000004 1.2995959e-38
-0.20501707 -0.23225406 0.5968262 1.0871855e-38
-0.0029011257 -0.232711 0.59809095 1.8073262e-38
0.0041429885 -0.231297 0.59575868 1.825658e-38
0.012380381 -0.23088305 0.59100002 1.8164746e-38
-0.21066937 -0.22251116 0.59370589 1.0871136e-38
-0.208308 -0.22701427 0.59581488 1.1055511e-38
0.0067763715 -0.22652157 0.59783351 1.8349133e-38
0.01439542 -0.22465949 0.59393263 1.8441327e-38
0.021982972 -0.22156538 0.59100008 1.8349495e-38
-0.22060572 -0.21037143 0.597 1.1147008e-38
-0.21494512 -0.21508142 0.59444898 1.0779303e-38
0.017012101 -0.21739057 0.59782368 1.825694e-38
0.024806641 -0.21469565 0.59392315 1.853388e-38
0.032709822 -0.21215338 0.59148276 1.8533523e-38
-0.22283271 -0.20430085 0.59476602 1.0687106e-38
-0.21976811 -0.20872383 0.59475005 1.105517e-38
0.027181944 -0.20816611 0.59791303 1.8533885e-38
0.035586495 -0.20534955 0.59488255 1.8625361e-38
0.043024018 -0.20264302 0.59141666 1.8717553e-38
-0.23224235 -0.1925097 0.597 1.0685664e-38
-0.22745949 -0.19708924 0.5954445 1.0686383e-38
0.038426541 -0.19813871 0.59806675 1.8532807e-38
0.045804214 -0.19560388 0.59549409 1.8717194e-38
0.053919181 -0.1928338 0.59198034 1.8809747e-38
-0.23612364 -0.18462884 0.59500015 1.0686019e-38
0.048205242 -0.18911287 0.59900004 1.8625359e-38
0.055851273 -0.18586355 0.59570879 1.8717554e-38
0.062985823 -0.18315537 0.59234047 1.8809751e-38
-0.2435931 -0.17427824 0.59451926 1.077822e-38
-0.23917651 -0.17890857 0.597 1.077821e-38
0.066234179 -0.17581464 0.5963068 1.8625003e-38
0.073921911 -0.17349182 0.5924772 1.880939e-38
0.081417911 -0.17093411 0.59040004 1.8901943e-38
-0.25078338 -0.16202457 0.59463167 1.041014e-38
-0.24805361 -0.16737357 0.59449995 1.0686026e-38
0.069540009 -0.16928953 0.59850001 1.8716115e-38
0.076111995 -0.16651346 0.59642112 1.8440609e-38
0.084390372 -0.16448714 0.59328228 1.8717194e-38
0.091414213 -0.16160016 0.59138471 1.8809748e-38
-0.26080209 -0.15168174 0.59227276 1.0593836e-38
-0.25644064 -0.15549098 0.59504843 1.0593836e-38
0.086775281 -0.15698111 0.59731823 1.8717194e-38
0.094830215 -0.15460914 0.5943259 1.8809388e-38
0.10224169 -0.15238823 0.59111547 1.8809385e-38
-0.26434064 -0.14481135 0.59434432 1.0593114e-38
-0.25958133 -0.14878707 0.59720004 1.0684934e-38
0.097602643 -0.14827271 0.59777778 1.8717197e-38
0.10509279 -0.14506751 0.59504372 1.8809031e-38
0.11339944 -0.1422389 0.59170592 1.8624637e-38
-0.27222249 -0.13337147 0.59353846 1.0409801e-38
-0.26903439 -0.13857457 0.59376472 1.0409446e-38
0.1086362 -0.13867763 0.59800005 1.8624998e-38
0.11549339 -0.1362337 0.59605402 1.8255854e-38
0.12134325 -0.136416 0.59290016 1.7979263e-38
-0.28076589 -0.12122773 0.59481823 1.0134294e-38
-0.2762534 -0.12627983 0.59460008 1.022576e-38
-0.28434369 -0.11504849 0.59468257 1.0225409e-38
-0.2921423 -0.10306883 0.59515786 1.0317601e-38
-0.28912255 -0.10787306 0.59584999 1.0316875e-38
-0.30136451 -0.091860697 0.59440917 1.0133578e-38
-0.29651782 -0.096708268 0.59500009 1.0042456e-38
-0.31064573 -0.080481909 0.59233338 9.3981725e-39
-0.30534992 -0.085027955 0.59394735 9.7651501e-39
-0.042482786 -0.021241613 0.59176934 1.1891423e-38
-0.054596514 -0.012962881 0.59365863 1.0970562e-38
-0.046323445 -0.017242948 0.59600002 1.1707028e-38
-0.056957141 -0.0084600002 0.59216672 8.3905212e-39
-0.12293673 0.028463701 0.59244442 7.0950838e-39
-0.11782771 0.027181981 0.59261543 5.8968853e-39
-0.11883143 0.030702857 0.597 5.8061401e-39
-0.20272672 -0.23273395 0.60473698 1.08715e-38
-0.19869716 -0.23629852 0.60600007 1.1055886e-38
-0.013870737 -0.23415971 0.60661364 1.8072192e-38
-0.0062818495 -0.23192789 0.60244119 1.8164741e-38
0 -0.23085715 0.60000002 1.807255e-38
-0.21068421 -0.22134249 0.60180002 1.0780027e-38
-0.20704371 -0.22528188 0.60484904 1.0871138e-38
-0.011332275 -0.22818245 0.60844445 1.8072901e-38
-0.0044248798 -0.22577855 0.60587686 1.8164736e-38
0.0029346705 -0.22365169 0.60215795 1.8348772e-38
0.010857143 -0.22057143 0.60000002 1.8349495e-38
-0.21414331 -0.21440497 0.60450763 1.0779298e-38
-0.20996001 -0.21924001 0.60900003 1.0778935e-38
-0.00116 -0.21924001 0.60900003 1.8072897e-38
0.0058664661 -0.21656005 0.60578972 1.8348414e-38
0.013777542 -0.21381189 0.60294032 1.825694e-38
0.02096381 -0.21078351 0.60033339 1.8533164e-38
-0.22211842 -0.20312507 0.60487181 1.0870412e-38
-0.21850592 -0.2079818 0.60517395 1.0962612e-38
0.017004369 -0.206462 0.60627091 1.8256579e-38
0.024486277 -0.20404746 0.60270685 1.8348413e-38
0.032024033 -0.20182522 0.60046148 1.8533167e-38
-0.23103255 -0.19143257 0.6018182 1.0686019e-38
-0.22703077 -0.19570632 0.60497671 1.077787e-38
0.026573202 -0.19730218 0.60665923 1.8164386e-38
0.034398314 -0.194464 0.60382724 1.8348417e-38
0.04202896 -0.19194095 0.60125011 1.8533167e-38
-0.23381595 -0.18520211 0.60460711 1.077786e-38
0.036831744 -0.1872867 0.60718185 1.8440609e-38
0.044986583 -0.18512836 0.60438114 1.8533164e-38
0.052658159 -0.18223673 0.60146427 1.8532801e-38
-0.24234882 -0.173858 0.60497558 1.0686022e-38
-0.23864764 -0.17863525 0.60507143 1.0685666e-38
0.0489701 -0.17828573 0.60780013 1.8440607e-38
0.055379212 -0.17523307 0.60490572 1.8440251e-38
0.061881986 -0.17327866 0.6012001 1.8532807e-38
-0.25089452 -0.1611241 0.60423082 1.0686022e-38
-0.24677417 -0.16605189 0.60448146 1.0594188e-38
0.056938026 -0.16903475 0.60815382 1.8440967e-38
0.065504335 -0.16569486 0.60460758 1.8532443e-38
0.073504083 -0.16267453 0.60193187 1.844061e-38
0.080000006 -0.16000001 0.60000002 1.8625001e-38
-0.25504547 -0.15512553 0.60458338 1.0593829e-38
0.067953661 -0.15907323 0.6081112 1.8624278e-38
0.075791985 -0.155689 0.60573608 1.8440251e-38
0.083786562 -0.15352325 0.60245621 1.8716835e-38
0.090285718 -0.15085715 0.60000002 1.9176372e-38
-0.26291078 -0.14294463 0.60242498 1.0409085e-38
-0.25901249 -0.14793535 0.6047619 1.0593828e-38
0.078793019 -0.1494762 0.60833335 1.8624634e-38
0.08588694 -0.14647928 0.60644084 1.8624641e-38
0.094372652 -0.14436772 0.60334587 1.8624997e-38
0.10125072 -0.14120762 0.60149997 1.8717911e-38
-0.27136722 -0.13283122 0.6030001 1.0501266e-38
-0.26779312 -0.13665044 0.60467434 1.0409439e-38
0.096815757 -0.1371047 0.60764879 1.8533163e-38
0.10496017 -0.13506848 0.60419768 1.8716477e-38
0.1133545 -0.13164783 0.60157144 1.8163656e-38
-0.28015554 -0.12120952 0.60033333 1.0317613e-38
-0.27552831 -0.12502652 0.60460001 1.0409082e-38
-0.26983622 -0.12970668 0.60800004 1.022612e-38
0.10815905 -0.12833688 0.60778582 1.8624633e-38
0.11417753 -0.12741347 0.60478044 1.7887069e-38
-0.28389955 -0.11427237 0.60461366 1.0225053e-38
-0.27944827 -0.11926984 0.60500002 1.0317616e-38
-0.29222432 -0.10334452 0.60682356 1.0041378e-38
-0.28802446 -0.10767673 0.6043182 1.0041367e-38
-0.30051145 -0.090785086 0.60333341 9.7654991e-39
-0.2973102 -0.095219374 0.60478044 9.9498861e-39
-0.19532526 -0.24092239 0.61775005 1.0687458e-38
-0.033780411 -0.24097852 0.61757153 1.7888518e-38
-0.029285714 -0.24014285 0.61500001 1.8072911e-38
-0.20130593 -0.23303206 0.61504006 1.0871129e-38
-0.19807564 -0.23789036 0.61570013 1.0596344e-38
-0.032035377 -0.23845363 0.61800003 1.7795962e-38
-0.024909258 -0.23533793 0.61526376 1.7979993e-38
-0.01774524 -0.23273613 0.61225003 1.8072189e-38
-0.20569937 -0.22486687 0.61499995 1.0871135e-38
-0.022278097 -0.22848323 0.61807698 1.8071473e-38
-0.014900755 -0.22490214 0.61511683 1.8071827e-38
-0.0074551562 -0.22247444 0.61221749 1.7979989e-38
-0.213708 -0.2149449 0.61647224 1.0871492e-38
-0.20943859 -0.21941096 0.61600006 1.0779292e-38
-0.012501979 -0.21857658 0.61823082 1.8072185e-38
-0.0046727457 -0.21593431 0.61486763 1.7980349e-38
0.0030553229 -0.21308973 0.61222231 1.8164382e-38
-0.22094972 -0.20194612 0.61452943 1.0870421e-38
-0.21827468 -0.20676087 0.61487508 1.1054453e-38
-0.0019154763 -0.20845954 0.61874998 1.825586e-38
0.0055046626 -0.2057461 0.61569738 1.816438e-38
0.013397277 -0.2037279 0.6122942 1.8256217e-38
-0.23002097 -0.19032191 0.61300004 1.0777869e-38
-0.22636823 -0.19519699 0.61532265 1.0961895e-38
0.0090393657 -0.19886605 0.61900008 1.8255857e-38
0.015967833 -0.19599684 0.61608326 1.816438e-38
0.024031598 -0.19315304 0.6129216 1.8256576e-38
0.030259047 -0.19086476 0.611 1.8440603e-38
-0.23329152 -0.18418299 0.61473995 1.096226e-38
-0.22909009 -0.18889037 0.6181429 1.0778229e-38
0.018864762 -0.18923715 0.61900002 1.8533164e-38
0.025919417 -0.18604435 0.61674571 1.853316e-38
0.034022391 -0.18401971 0.6136924 1.844097e-38
0.042622671 -0.18120708 0.61140001 1.8533167e-38
-0.24129325 -0.17330149 0.6146 1.0870054e-38
-0.23842223 -0.17831206 0.61544448 1.1054083e-38
0.028886668 -0.17862572 0.61900002 1.9084889e-38
0.036255088 -0.1768536 0.61685991 1.8624998e-38
0.044695925 -0.17474793 0.6136409 1.8624641e-38
0.050676905 -0.1721281 0.61162502 1.8532804e-38
-0.25061029 -0.16082095 0.61540002 1.077711e-38
-0.24621484 -0.16599292 0.61531579 1.0686372e-38
0.046764955 -0.16724147 0.61734283 1.8624997e-38
0.054708239 -0.16474476 0.61505955 1.8624998e-38
0.061866932 -0.16299438 0.61228585 1.8624638e-38
-0.25433168 -0.15486388 0.61478847 1.0593826e-38
0.057931613 -0.1578304 0.61771441 1.8533167e-38
0.06545388 -0.15546571 0.61511606 1.8716837e-38
0.072566472 -0.15250985 0.61252004 1.8440607e-38
-0.26288316 -0.14271986 0.61539412 1.0501277e-38
-0.25821844 -0.14787307 0.61481822 1.0777859e-38
0.068488419 -0.14767145 0.61816669 1.8625003e-38
0.075295828 -0.14524992 0.61584353 1.8532441e-38
0.083174787 -0.14270341 0.61278951 1.8532806e-38
0.090777144 -0.14082095 0.611 1.8625001e-38
-0.27010414 -0.13076954 0.61300004 1.0317604e-38
-0.26744869 -0.13500865 0.61544687 1.0317246e-38
0.078603171 -0.13873461 0.61900008 1.8532799e-38
0.085857466 -0.13617855 0.61659992 1.8532803e-38
0.093636125 -0.13386954 0.61375004 1.8624641e-38
0.10180528 -0.13104065 0.61122227 1.8716475e-38
-0.27448657 -0.12473472 0.61447626 1.0501633e-38
-0.26972002 -0.12960573 0.61300004 1.0501254e-38
0.089018092 -0.12969524 0.61900002 1.8624637e-38
0.096318677 -0.12762354 0.6169166 1.8716471e-38
0.10470516 -0.12467777 0.61457694 1.8440247e-38
0.11251581 -0.12267734 0.61339998 1.7793797e-38
-0.28281382 -0.11400601 0.61380488 1.0132862e-38
-0.27914825 -0.11884209 0.61554545 1.0409434e-38
0.1076242 -0.11748216 0.61808348 1.7887072e-38
0.11194118 -0.1176125 0.6161111 1.7518289e-38
-0.29178044 -0.10204903 0.61348158 1.0040654e-38
-0.28741473 -0.10679012 0.61523688 1.0133568e-38
-0.19334178 -0.24220042 0.62491304 1.096298e-38
-0.18989144 -0.24482858 0.62700003 1.0779294e-38
-0.052714922 -0.24362005 0.62828577 1.7703764e-38
-0.044967283 -0.24186623 0.62452942 1.7703765e-38
-0.038007379 -0.24120216 0.62112498 1.7703768e-38
-0.20062737 -0.23216572 0.62187505 1.0779672e-38
-0.19781137 -0.23550616 0.62463152 1.0963339e-38
-0.0429831 -0.23665196 0.62725645 1.7888151e-38
-0.035540372 -0.23435628 0.62403953 1.7887793e-38
-0.028497146 -0.23162358 0.62100011 1.8071106e-38
-0.20452251 -0.22446638 0.62406003 1.0962973e-38
-0.19976382 -0.22966857 0.62800002 1.0963692e-38
-0.033061951 -0.22799976 0.6273334 1.7888514e-38
-0.025091935 -0.2246484 0.62421256 1.8072188e-38
-0.018944001 -0.22258857 0.62160009 1.8072539e-38
-0.2125151 -0.21402974 0.62340003 1.0778945e-38
-0.20925525 -0.2182112 0.62687504 1.0778939e-38
-0.021527976 -0.21766131 0.62787503 1.8347694e-38
-0.014981796 -0.21479018 0.62389702 1.8255859e-38
-0.0075813858 -0.21191315 0.62090909 1.8164019e-38
-0.22081095 -0.20137495 0.62466669 1.0870049e-38
-0.21754794 -0.20593579 0.62515008 1.0962616e-38
-0.012742332 -0.20710501 0.62775862 1.8164026e-38
-0.0053947894 -0.2047704 0.62495834 1.8164382e-38
0.0020974893 -0.20220393 0.62163639 1.8072549e-38
-0.22451107 -0.1952208 0.6249513 1.0961898e-38
-0.0026515645 -0.1981487 0.62857151 1.8256932e-38
0.0052416292 -0.19552173 0.62493438 1.8348412e-38
0.012777777 -0.19204882 0.62175 1.8348776e-38
-0.2328108 -0.18373327 0.62434608 1.0870414e-38
-0.22861254 -0.1885616 0.62458336 1.1053716e-38
0.0089075137 -0.1880002 0.62822229 1.8349132e-38
0.015323893 -0.18528154 0.62531877 1.8532806e-38
0.022722557 -0.18281186 0.62231421 1.8625e-38
-0.24108641 -0.1718751 0.62312502 1.0686379e-38
-0.23818326 -0.17619832 0.62516212 1.0778585e-38
0.017558604 -0.17798389 0.62853342 1.8532804e-38
0.025266008 -0.1752694 0.62621337 1.8532801e-38
0.033931483 -0.17291415 0.62273175 1.8625e-38
0.040152382 -0.17005715 0.62 1.8625356e-38
-0.25067097 -0.16070001 0.62150002 1.0501276e-38
-0.24575928 -0.16498581 0.62480003 1.0777503e-38
0.028947428 -0.16938019 0.62800002 1.825694e-38
0.036166519 -0.16597818 0.62636846 1.8532806e-38
0.04399677 -0.16361868 0.62352467 1.8532803e-38
-0.25251487 -0.15471579 0.62511778 1.0684948e-38
-0.2496019 -0.1576381 0.62699997 1.068567e-38
0.039537143 -0.15934667 0.62900001 1.8349126e-38
0.046005569 -0.15720512 0.62740004 1.8440609e-38
0.054177631 -0.15455611 0.62488717 1.8532803e-38
0.062463641 -0.15195137 0.6215294 1.8625003e-38
-0.26179257 -0.14241932 0.625 1.0501978e-38
-0.25711831 -0.14738102 0.62605411 1.0502342e-38
0.057044078 -0.14718266 0.62794447 1.8348412e-38
0.064750157 -0.14481358 0.62472981 1.844061e-38
0.071362607 -0.14132416 0.62254554 1.8256938e-38
-0.27012572 -0.13032381 0.62200004 1.0317241e-38
-0.26599863 -0.13547546 0.62515903 1.0317955e-38
0.06829726 -0.1370855 0.62776476 1.8440611e-38
0.075061925 -0.1350214 0.62544423 1.8532084e-38
0.082738131 -0.13271055 0.62231994 1.8624278e-38
-0.27404439 -0.12495449 0.62441671 1.0225398e-38
-0.26965269 -0.12944889 0.6273334 1.0224703e-38
0.07766442 -0.12846355 0.62818182 1.8439885e-38
0.085415497 -0.12595098 0.62621427 1.8440606e-38
0.094204642 -0.12358278 0.62303507 1.8532444e-38
0.10088255 -0.12098032 0.62066674 1.8532801e-38
-0.282886 -0.11321234 0.62470365 1.0225053e-38
-0.27880538 -0.11796144 0.62437499 1.0317231e-38
0.089186668 -0.11971429 0.62849998 1.8071822e-38
0.096247889 -0.11720301 0.62607145 1.8348053e-38
0.10418738 -0.11423843 0.62460607 1.8255137e-38
0.10698362 -0.10818083 0.62826675 1.7332811e-38
0.11004952 -0.10825524 0.62800002 1.428319e-38
-0.19270328 -0.24269195 0.63496298 1.0963681e-38
-0.18815047 -0.24535207 0.6355834 1.0872211e-38
-0.072014295 -0.24910861 0.63900006 1.7333904e-38
-0.064341851 -0.24484475 0.63618892 1.7426815e-38
-0.056297872 -0.24253127 0.63391906 1.7703048e-38
-0.049278099 -0.24038097 0.63100004 1.7888518e-38
-0.20127937 -0.23130003 0.63466668 1.0871858e-38
-0.19658118 -0.2355783 0.63497561 1.1055537e-38
-0.053612612 -0.23677015 0.6372382 1.7703044e-38
-0.046754982 -0.2337489 0.63365322 1.7795961e-38
-0.20429236 -0.22520007 0.63600016 1.0963689e-38
-0.19988573 -0.22896001 0.63600004 1.1056252e-38
-0.04380149 -0.22657967 0.6368044 1.788708e-38
-0.035773195 -0.22421587 0.63334841 1.8072188e-38
-0.028401146 -0.22118936 0.6318 1.8347697e-38
-0.21252216 -0.21347749 0.6352728 1.0778935e-38
-0.20843697 -0.21827354 0.63499999 1.1054807e-38
-0.040165719 -0.21908574 0.63900006 1.7887439e-38
-0.0332301 -0.2167169 0.63666672 1.8072546e-38
-0.025424959 -0.21428545 0.63372058 1.8255859e-38
-0.018724082 -0.21197417 0.63128579 1.8256216e-38
-0.22134395 -0.20158611 0.63700002 1.077858e-38
-0.21679671 -0.20631744 0.63562077 1.1054095e-38
-0.022793848 -0.20729414 0.63615388 1.8164736e-38
-0.015905734 -0.20409089 0.63396233 1.825586e-38
-0.0086567616 -0.2012625 0.63120002 1.8349135e-38
-0.22423266 -0.19483951 0.63399994 1.096153e-38
-0.013438956 -0.19714651 0.63751614 1.8255854e-38
-0.0060257725 -0.19457971 0.63410598 1.8348413e-38
0.0019013532 -0.19219761 0.63231587 1.8440611e-38
-0.23297942 -0.18316026 0.63442868 1.0870043e-38
-0.22893681 -0.18804483 0.63476473 1.0962963e-38
-0.0034789611 -0.18815887 0.63713646 1.8348407e-38
0.0045650965 -0.18484293 0.63505191 1.8348412e-38
0.011545333 -0.18232325 0.63140005 1.8349488e-38
-0.24038097 -0.17067048 0.63100004 1.0962272e-38
-0.2368426 -0.17519164 0.63441867 1.0685667e-38
0.0079970881 -0.17806019 0.63747066 1.8439884e-38
0.014775238 -0.17463385 0.63482541 1.844025e-38
0.0219537 -0.17127971 0.63223076 1.853208e-38
-0.24479423 -0.16505462 0.63450015 1.0961533e-38
-0.23948573 -0.16933334 0.63500005 1.0870414e-38
0.019139525 -0.16891667 0.63800001 1.8440618e-38
0.02549655 -0.16568515 0.63549191 1.8348413e-38
0.032563813 -0.16318335 0.63323528 1.8440611e-38
-0.25171718 -0.15326986 0.63416666 1.0777492e-38
-0.24959956 -0.15788236 0.63423079 1.096154e-38
0.029211432 -0.15883717 0.63900006 1.8164393e-38
0.036164477 -0.15646866 0.63572234 1.825622e-38
0.044152055 -0.15302791 0.63321966 1.8440607e-38
0.050480004 -0.1502381 0.63100004 1.8440617e-38
-0.2607393 -0.14147831 0.63244444 1.0502344e-38
-0.25801557 -0.1452257 0.63575011 1.0410504e-38
0.046228729 -0.14660515 0.6361177 1.8440606e-38
0.054039605 -0.14358772 0.63319248 1.834841e-38
0.061069526 -0.14109048 0.63175005 1.8072905e-38
-0.26456013 -0.13535465 0.63410878 1.0409431e-38
0.056258276 -0.13730827 0.63761765 1.8348409e-38
0.06453494 -0.13456437 0.63452852 1.8440247e-38
0.071570002 -0.13050953 0.63150001 1.8071827e-38
-0.27342433 -0.12360724 0.63330561 1.0225035e-38
-0.26895106 -0.12806857 0.63384616 1.0409789e-38
0.067350477 -0.12814754 0.63682353 1.834769e-38
0.074893914 -0.12458829 0.63508576 1.834805e-38
0.083095036 -0.12188821 0.63226318 1.7980352e-38
-0.27843973 -0.11732267 0.63580006 1.0317234e-38
0.077946804 -0.11839742 0.63800001 1.8164016e-38
0.085387796 -0.11568053 0.63541538 1.8071823e-38
0.093951508 -0.11331449 0.63289589 1.834805e-38
0.10156096 -0.11057524 0.63100004 1.8440246e-38
0.096041426 -0.10682304 0.63640428 1.8440244e-38
0.10327946 -0.10486981 0.63315994 1.7424656e-38
-0.18399838 -0.2512241 0.64585716 1.0963705e-38
-0.090719998 -0.25241143 0.648 1.6965836e-38
-0.085574083 -0.2514405 0.64638889 1.7057315e-38
-0.07875143 -0.25029525 0.64100003 1.7334262e-38
-0.19141728 -0.24215856 0.6448462 1.1147723e-38
-0.18683416 -0.24788512 0.64500004 1.1055532e-38
-0.082356073 -0.2479628 0.64660007 1.696548e-38
-0.075133242 -0.24524806 0.64394361 1.7149868e-38
-0.066799536 -0.24172373 0.64110005 1.7242784e-38
-0.2002362 -0.23076001 0.64100003 1.0780028e-38
-0.19584891 -0.23473164 0.64478737 1.0871149e-38
-0.071385719 -0.23828965 0.64708328 1.7242067e-38
-0.064325519 -0.23544525 0.64464617 1.7334257e-38
-0.056937188 -0.23356056 0.64173692 1.7426817e-38
-0.20382752 -0.22468457 0.64406073 1.0963333e-38
-0.19933715 -0.22893016 0.64733338 1.1055889e-38
-0.061511021 -0.2285943 0.64771438 1.7425734e-38
-0.053981744 -0.2261533 0.64535725 1.7426457e-38
-0.046544652 -0.22293092 0.64152956 1.7519375e-38
-0.21111558 -0.21234046 0.64342105 1.0870768e-38
-0.20796399 -0.21701837 0.64462501 1.1054799e-38
-0.043654677 -0.21634524 0.64537269 1.7703046e-38
-0.036425132 -0.21303223 0.64260972 1.7978914e-38
-0.22064763 -0.20114286 0.64000005 1.0868631e-38
-0.21626726 -0.20528035 0.64415556 1.0962613e-38
-0.04073143 -0.20982857 0.648 1.7702325e-38
-0.033524912 -0.20698841 0.64580017 1.7795246e-38
-0.025901791 -0.20400262 0.64317548 1.7979992e-38
-0.018895239 -0.20175238 0.64000005 1.8071829e-38
-0.22313564 -0.19444658 0.64300007 1.0869701e-38
-0.21951583 -0.19884229 0.64600003 1.0686746e-38
-0.030857142 -0.19995429 0.648 1.7703408e-38
-0.024436189 -0.19768924 0.64694297 1.7887796e-38
-0.016498525 -0.19386391 0.64362741 1.807219e-38
-0.0097523816 -0.19017144 0.64000005 1.816403e-38
-0.23192027 -0.18318459 0.64504766 1.096152e-38
-0.22795092 -0.18769799 0.64361119 1.0778579e-38
-0.013145273 -0.18745226 0.64534622 1.8255498e-38
-0.0060035479 -0.18438795 0.64324135 1.8256217e-38
0.00060952385 -0.18102857 0.64000005 1.8256212e-38
-0.24042669 -0.17050669 0.64400005 1.1053702e-38
-0.23623222 -0.17455901 0.64452398 1.0961538e-38
-0.0029192981 -0.17792761 0.64657903 1.8255854e-38
0.0044635357 -0.17435721 0.64367115 1.8256214e-38
0.012738504 -0.17104682 0.64142865 1.8164741e-38
-0.24417244 -0.16515157 0.64480853 1.0961535e-38
-0.2393689 -0.16956954 0.64666671 1.1053022e-38
0.0076938677 -0.16712449 0.64743984 1.8164024e-38
0.015142372 -0.16503729 0.64385891 1.825586e-38
0.02234129 -0.16221416 0.64117658 1.8440248e-38
-0.25222611 -0.15296656 0.64404362 1.0593463e-38
-0.2483228 -0.15780079 0.6438182 1.0686025e-38
0.017539047 -0.15851147 0.64688241 1.8440244e-38
0.025705373 -0.15570873 0.64468247 1.8256575e-38
0.033524733 -0.15284775 0.64181834 1.8164023e-38
-0.26096094 -0.14217524 0.64625001 1.0318674e-38
-0.25633422 -0.14677793 0.64468759 1.0410162e-38
0.028520238 -0.14815357 0.64749998 1.8348051e-38
0.035150439 -0.14600435 0.6457001 1.8256216e-38
0.04338181 -0.14302556 0.64207506 1.8440248e-38
-0.26546305 -0.13428096 0.64403349 1.0592758e-38
0.039497141 -0.13947429 0.648 1.8347693e-38
0.046017144 -0.13627382 0.64582366 1.843989e-38
0.054095186 -0.13336091 0.64326918 1.8348051e-38
0.061390482 -0.13091239 0.64033341 1.8532091e-38
-0.27285784 -0.12443596 0.64490008 1.0225402e-38
-0.26895857 -0.12955572 0.64625001 1.0316883e-38
0.049371429 -0.1296 0.648 1.8439869e-38
0.056177996 -0.12753783 0.64664531 1.8440241e-38
0.064604439 -0.12440064 0.64412308 1.8348051e-38
0.070868097 -0.1209662 0.64150006 1.8256212e-38
0.066887982 -0.11821094 0.64731246 1.8439884e-38
0.074668072 -0.11487868 0.64400005 1.8439887e-38
0.082944453 -0.11165755 0.6414445 1.8348407e-38
0.078188725 -0.10842302 0.64684612 1.8532438e-38
0.085655943 -0.1057476 0.64438695 1.8440604e-38
0.093839861 -0.10284868 0.64181596 1.8440241e-38
0.10133906 -0.1001181 0.64100003 1.7517196e-38
0.088868573 -0.099977143 0.648 1.8532441e-38
0.095337637 -0.097422861 0.64576924 1.7978912e-38
0.10116278 -0.097159326 0.64200002 1.3732516e-38
-0.18221143 -0.25172806 0.65372223 1.1055164e-38
-0.17870097 -0.25461611 0.65455562 1.0871493e-38
-0.10302006 -0.25418019 0.65690476 1.6596689e-38
-0.095637776 -0.25252485 0.65344459 1.6873279e-38
-0.088730156 -0.25050795 0.65000004 1.7240986e-38
-0.19060335 -0.24224548 0.65137506 1.105446e-38
-0.18780869 -0.24583127 0.65416229 1.0871866e-38
-0.09303841 -0.24732523 0.6563077 1.7057314e-38
-0.085516334 -0.24458328 0.65313107 1.6965476e-38
-0.078121699 -0.24111006 0.65100008 1.7240629e-38
-0.19402076 -0.23541836 0.65412503 1.0871498e-38
-0.18970287 -0.2393181 0.6566667 1.1054453e-38
-0.084011644 -0.2379543 0.65689296 1.7057313e-38
-0.075334266 -0.23492007 0.65395242 1.7057675e-38
-0.06781894 -0.23177399 0.65152937 1.7242064e-38
-0.20295337 -0.22428241 0.65389997 1.0962981e-38
-0.1989969 -0.22922596 0.65450001 1.0963337e-38
-0.072518811 -0.22811453 0.657125 1.7149508e-38
-0.065033354 -0.22514018 0.65495241 1.7333539e-38
-0.056756821 -0.22228797 0.65088892 1.7242428e-38
-0.21125016 -0.21138668 0.65411121 1.0778934e-38
-0.20759481 -0.21590783 0.65542114 1.0963336e-38
-0.061077148 -0.21893668 0.65775007 1.7425734e-38
-0.054393578 -0.21578288 0.65454245 1.7334262e-38
-0.04735399 -0.21328574 0.65160602 1.7426454e-38
-0.21572794 -0.20434645 0.6536001 1.0962609e-38
-0.0516221 -0.20899241 0.65780002 1.7426814e-38
-0.04426473 -0.20643799 0.65547073 1.7517935e-38
-0.036865186 -0.20354398 0.65160006 1.7610491e-38
-0.22358714 -0.194014 0.65543753 1.1053732e-38
-0.21826108 -0.19820257 0.65583336 1.1054426e-38
-0.040106669 -0.19928001 0.65800005 1.7518309e-38
-0.034009442 -0.19633333 0.6551668 1.7610849e-38
-0.026253168 -0.19319366 0.65223408 1.7887438e-38
-0.019809525 -0.19066668 0.65000004 1.8256226e-38
-0.23112389 -0.18275797 0.65394449 1.0778203e-38
-0.22865155 -0.18777715 0.65531248 1.0777863e-38
-0.023098329 -0.1863244 0.65594596 1.8071109e-38
-0.016315939 -0.18423043 0.65303785 1.8164023e-38
-0.0089173345 -0.18131278 0.65020007 1.8347333e-38
-0.23560739 -0.17569645 0.65471441 1.077786e-38
-0.020053335 -0.17922668 0.65800005 1.8255155e-38
-0.01374424 -0.17628625 0.65582508 1.8347335e-38
-0.006215883 -0.17423402 0.65237302 1.8348053e-38
0.00041269846 -0.17135748 0.6503334 1.8164023e-38
-0.24298741 -0.16468409 0.65441185 1.0777496e-38
-0.23953843 -0.16967176 0.65500009 1.0961185e-38
-0.003926455 -0.16666292 0.656389 1.8256579e-38
0.0037055605 -0.1639374 0.65301627 1.8256216e-38
0.011142857 -0.16095239 0.65000004 1.8256212e-38
-0.25214681 -0.1523217 0.65372229 1.0777496e-38
-0.2470855 -0.15717417 0.65286958 1.0685306e-38
0.0075446879 -0.15766415 0.65612 1.8440606e-38
0.014699748 -0.15425009 0.65380901 1.8439884e-38
0.022700237 -0.15193261 0.65081257 1.8440241e-38
-0.26057526 -0.14143352 0.65020007 1.0410866e-38
-0.25655365 -0.14450657 0.65289998 1.0409432e-38
0.017242651 -0.1476469 0.65691304 1.8532443e-38
0.025145689 -0.14467925 0.65424246 1.8532441e-38
0.034801207 -0.14130828 0.65136844 1.8348407e-38
-0.26399052 -0.13476771 0.65312505 1.0501632e-38
-0.259058 -0.13850859 0.65342867 1.0318309e-38
0.02880381 -0.13901335 0.65750003 1.8440248e-38
0.035340149 -0.13509353 0.65497237 1.8439884e-38
0.043342151 -0.13242242 0.65155566 1.8440604e-38
0.037381276 -0.12864287 0.65783334 1.8716472e-38
0.045665897 -0.12603909 0.65584743 1.85328e-38
0.054156601 -0.12326343 0.65257448 1.8440964e-38
0.061110478 -0.12056954 0.6503334 1.8439888e-38
0.048880003 -0.11906668 0.65800005 1.8626068e-38
0.055952691 -0.11705665 0.65561908 1.85328e-38
0.064433306 -0.11401938 0.65326244 1.8440963e-38
0.071744554 -0.11154245 0.65066671 1.8532441e-38
0.067856818 -0.10727668 0.65656525 1.8624996e-38
0.074661486 -0.10436828 0.65398532 1.8624997e-38
0.083202004 -0.10173081 0.65088892 1.8624637e-38
0.077548243 -0.097874947 0.65729415 1.8809384e-38
0.085372858 -0.095215306 0.65436774 1.8809024e-38
0.094429225 -0.09311714 0.65184206 1.6412293e-38
0.10150369 -0.092597559 0.6544286 1.4664513e-38
0.088403426 -0.088904761 0.65740001 1.9177085e-38
0.095096208 -0.088608198 0.65592307 1.4749556e-38
0.10130715 -0.087861665 0.65662503 1.6224309e-38
-0.17482001 -0.26064289 0.66750002 1.0503054e-38
-0.12202857 -0.2605778 0.66733336 1.4289281e-38
-0.11861143 -0.26005715 0.66600001 1.4750621e-38
-0.18168427 -0.25189093 0.66376472 1.0779654e-38
-0.17783102 -0.25649771 0.66461903 1.0687105e-38
-0.12123938 -0.25901145 0.66766679 1.4290002e-38
-0.11424367 -0.25657746 0.66640931 1.52134e-38
-0.10650621 -0.25286409 0.66243756 1.6320103e-38
-0.099314287 -0.25017142 0.66000003 1.6505578e-38
-0.1866073 -0.24576263 0.66492695 1.0962973e-38
-0.10303271 -0.2458996 0.66512513 1.6503783e-38
-0.095991954 -0.24435787 0.662 1.6872928e-38
-0.19381079 -0.23388472 0.66365004 1.0963339e-38
-0.18952119 -0.23860095 0.66500002 1.0963337e-38
-0.10066857 -0.23956572 0.66900003 1.723991e-38
-0.093774803 -0.23701072 0.66635728 1.6965483e-38
-0.085639827 -0.23372769 0.66288245 1.6965478e-38
-0.078915715 -0.23108715 0.66025001 1.6873643e-38
-0.20157474 -0.22336496 0.66269565 1.0963337e-38
-0.19805084 -0.22772084 0.66281253 1.0779659e-38
-0.082595639 -0.22691579 0.66675007 1.7056954e-38
-0.075471632 -0.22446801 0.66333908 1.7241346e-38
-0.067210585 -0.2207727 0.66022229 1.7333904e-38
-0.21120982 -0.21085225 0.66457152 1.0779671e-38
-0.20645303 -0.21578106 0.66470003 1.1054811e-38
-0.073780902 -0.21760973 0.66703457 1.7333905e-38
-0.06479875 -0.21521574 0.66425753 1.7333902e-38
-0.05815132 -0.21234797 0.66187495 1.7426098e-38
-0.21431336 -0.20580238 0.66413897 1.0870776e-38
-0.061953656 -0.20898573 0.66833341 1.7517932e-38
-0.054487195 -0.20546371 0.66467214 1.7518291e-38
-0.046751775 -0.20226163 0.66119999 1.7426458e-38
-0.22260097 -0.19265769 0.66308331 1.1054448e-38
-0.21829525 -0.19680873 0.66341668 1.0962242e-38
-0.0513747 -0.1978716 0.66714293 1.7702322e-38
-0.044320095 -0.19561514 0.66474193 1.7701966e-38
-0.036940731 -0.1927838 0.66169244 1.7702682e-38
-0.2307031 -0.18195072 0.66049999 1.1054436e-38
-0.22758709 -0.18494342 0.66285723 1.096225e-38
-0.041772194 -0.18924534 0.66860008 1.8069665e-38
-0.034025624 -0.1857511 0.66466135 1.7794879e-38
-0.026644649 -0.18371785 0.66144127 1.7887795e-38
-0.23449028 -0.17524958 0.66352093 1.0778224e-38
-0.22984001 -0.17932573 0.66300005 1.096298e-38
-0.031967834 -0.17850454 0.66833335 1.7887072e-38
-0.024043847 -0.17617342 0.66483939 1.7979269e-38
-0.016390936 -0.1730151 0.66186208 1.8347331e-38
-0.24231194 -0.16385524 0.66311544 1.0777131e-38
-0.2387576 -0.16827984 0.66290915 1.0870049e-38
-0.020388572 -0.16948001 0.66900003 1.8072182e-38
-0.013818553 -0.16528536 0.6648615 1.8164023e-38
-0.0064300462 -0.1629359 0.66196775 1.8532085e-38
-0.25180262 -0.15237063 0.66431576 1.0685657e-38
-0.24725263 -0.15697297 0.66309524 1.0685282e-38
-0.010194286 -0.15928572 0.66900003 1.8347335e-38
-0.0039820783 -0.15616606 0.66572744 1.8440247e-38
0.003577892 -0.15404209 0.66223204 1.8532441e-38
0.010057143 -0.15085715 0.66000003 1.862464e-38
-0.25630066 -0.14517555 0.66450012 1.0409436e-38
0.0056176628 -0.14738968 0.6669091 1.853244e-38
0.013698831 -0.14420176 0.66313207 1.8624637e-38
0.021757824 -0.14152218 0.66085714 1.8623914e-38
0.016730158 -0.13785835 0.66604763 1.8624273e-38
0.024527704 -0.13509496 0.66352934 1.8624273e-38
0.030909659 -0.13208519 0.66042864 1.8532794e-38
0.027270053 -0.12780866 0.66766667 1.8624277e-38
0.034701448 -0.12503855 0.66430157 1.8624635e-38
0.042452913 -0.12253598 0.66094446 1.8624635e-38
0.037668414 -0.11852556 0.66850007 1.8624997e-38
0.045386337 -0.1156931 0.6649192 1.8624278e-38
0.053704515 -0.11297166 0.66240555 1.8624993e-38
0.060342859 -0.11062858 0.66000003 1.8900501e-38
0.048208334 -0.10866976 0.66825008 1.862464e-38
0.056130107 -0.10625629 0.66608173 1.8717188e-38
0.063966595 -0.10411736 0.66261113 1.871719e-38
0.071028575 -0.10057143 0.66000003 1.8900861e-38
0.059891429 -0.099394292 0.66900003 1.8809384e-38
0.066508755 -0.097325951 0.66712505 1.8809387e-38
0.074224569 -0.094100542 0.66333938 1.8809027e-38
0.081800386 -0.091868199 0.66070002 1.8993049e-38
0.077375829 -0.087585345 0.66643476 1.8993414e-38
0.084819764 -0.084596083 0.66424644 1.9177805e-38
0.095054962 -0.083737619 0.6616385 1.3459161e-38
0.10201106 -0.08423163 0.66200012 1.6224301e-38
0.087256096 -0.07863006 0.66822225 1.6963692e-38
0.094439194 -0.078777507 0.66452384 1.3548479e-38
-0.17264748 -0.26219642 0.67518747 1.0319053e-38
-0.14162001 -0.26513335 0.67900002 1.4011247e-38
-0.13491362 -0.26247799 0.67621738 1.391977e-38
-0.12721837 -0.26117474 0.67154551 1.3736106e-38
-0.18127653 -0.25141144 0.67458344 1.0595631e-38
-0.17715564 -0.25690579 0.67451859 1.0686397e-38
-0.13219695 -0.25845715 0.67710006 1.4012322e-38
-0.12458709 -0.25588432 0.6747117 1.4013406e-38
-0.11626471 -0.2525937 0.67123342 1.4936089e-38
-0.10975238 -0.25013334 0.67000002 1.6043156e-38
-0.18503375 -0.24527493 0.67474365 1.0963333e-38
-0.12065207 -0.24905968 0.67866677 1.493428e-38
-0.11402056 -0.24614125 0.6754117 1.5305227e-38
-0.10694471 -0.24330524 0.67251432 1.6136078e-38
-0.19315086 -0.2325723 0.67200005 1.0963344e-38
-0.18860815 -0.23785767 0.67236364 1.0871493e-38
-0.11122667 -0.23926666 0.67900002 1.576693e-38
-0.10417026 -0.2356644 0.67587227 1.659598e-38
-0.09634617 -0.23305908 0.67181581 1.7058033e-38
-0.20151201 -0.2221061 0.67365003 1.0872215e-38
-0.19785999 -0.22628099 0.67347991 1.0962616e-38
-0.10088 -0.22892 0.67900002 1.6966915e-38
-0.093927883 -0.22622207 0.67650008 1.7241707e-38
-0.086352356 -0.22413985 0.67269564 1.7333902e-38
-0.21098796 -0.21056256 0.67133331 1.1055534e-38
-0.20607445 -0.21551105 0.67523086 1.0871492e-38
-0.090533338 -0.21986668 0.67900002 1.7518642e-38
-0.083479293 -0.21638206 0.67682505 1.7517572e-38
-0.075611152 -0.21329585 0.6725319 1.7517576e-38
-0.068080641 -0.2114746 0.67016673 1.7518292e-38
-0.21335807 -0.20439154 0.67463273 1.1054451e-38
-0.20988192 -0.20988192 0.67600006 1.1054816e-38
-0.073828772 -0.20676474 0.67730004 1.7610132e-38
-0.06558504 -0.20448591 0.67387891 1.7702327e-38
-0.058064032 -0.20238844 0.67053849 1.7794162e-38
-0.22242275 -0.19178034 0.67336839 1.096261e-38
-0.21811853 -0.19745426 0.67419046 1.105409e-38
-0.062625721 -0.19740923 0.67659092 1.7702319e-38
-0.055209786 -0.19468094 0.67430001 1.7702679e-38
-0.048057526 -0.19205387 0.671 1.7610133e-38
-0.22624034 -0.18547931 0.67395133 1.0869334e-38
-0.051476002 -0.18809392 0.67729998 1.7886709e-38
-0.044701502 -0.18496612 0.67396373 1.779452e-38
-0.038135685 -0.18216795 0.67129415 1.7887072e-38
-0.23424651 -0.17417283 0.67465723 1.0685663e-38
-0.22958478 -0.17865905 0.67400002 1.0777849e-38
-0.042320795 -0.17800272 0.67841667 1.7978191e-38
-0.035091817 -0.17500207 0.67485183 1.797891e-38
-0.026754292 -0.17218594 0.67156518 1.7978917e-38
-0.24162918 -0.16319317 0.67317247 1.059383e-38
-0.23868454 -0.16818108 0.67531252 1.0686018e-38
-0.032692071 -0.16835377 0.67746675 1.8070743e-38
-0.024645567 -0.16529779 0.67484593 1.7979626e-38
-0.018662382 -0.16326207 0.6718334 1.807111e-38
-0.25053522 -0.15185416 0.67157149 1.0592736e-38
-0.24710856 -0.15610805 0.67394453 1.0501981e-38
-0.021104127 -0.1582762 0.6783334 1.807146e-38
-0.014293364 -0.15578814 0.67478698 1.8071103e-38
-0.007125963 -0.15282741 0.67204338 1.8255856e-38
-0.011510651 -0.14810303 0.67827272 1.8071822e-38
-0.0044776197 -0.14597821 0.67514598 1.8255854e-38
0.0033992568 -0.14324029 0.67204875 1.8348409e-38
0.010634921 -0.14080635 0.67000002 1.8624277e-38
-0.0012933334 -0.13968 0.67900002 1.8348042e-38
0.0057215402 -0.13628337 0.67610645 1.8440243e-38
0.013959215 -0.13392907 0.67243135 1.8532438e-38
0.020854603 -0.13066159 0.67033339 1.8716478e-38
0.016377978 -0.12730993 0.67621881 1.8532799e-38
0.024246523 -0.12407292 0.67272234 1.8624633e-38
0.031176001 -0.12112649 0.67080003 1.8716832e-38
0.027253333 -0.11694464 0.67662966 1.8716828e-38
0.034848966 -0.11443958 0.67341387 1.8624994e-38
0.04183377 -0.1121368 0.67109096 1.8716837e-38
0.036947791 -0.10701958 0.67779315 1.8809385e-38
0.044836789 -0.10465734 0.67448431 1.8809025e-38
0.05325 -0.10207977 0.67166662 1.871683e-38
0.047415428 -0.098449714 0.67830002 1.8809384e-38
0.055468 -0.095537871 0.67573357 1.8901581e-38
0.063715003 -0.093126439 0.67207497 1.890122e-38
0.070828572 -0.090609528 0.67000002 1.8901224e-38
0.058523335 -0.088916674 0.67900002 1.9177806e-38
0.066365123 -0.086042352 0.67642558 1.9085611e-38
0.07400237 -0.083908796 0.67331386 1.9085612e-38
0.081038095 -0.080399998 0.67000002 1.9177452e-38
0.076802596 -0.077309802 0.67689306 1.9269641e-38
0.084727153 -0.074831918 0.67437744 1.5854818e-38
0.093440965 -0.074815437 0.67416656 1.5306658e-38
-0.17183396 -0.26159382 0.68300003 1.0594205e-38
-0.1678638 -0.26573184 0.68505007 9.6736664e-39
-0.15279135 -0.26708484 0.68827283 1.4104519e-38
-0.14535114 -0.26315066 0.68378586 1.4012325e-38
-0.13873605 -0.2613557 0.68071431 1.4011607e-38
-0.18083398 -0.25182223 0.68383336 1.0962987e-38
-0.17703009 -0.2559664 0.68502945 1.0870784e-38
-0.14250521 -0.25767562 0.6871177 1.4104156e-38
-0.13492985 -0.25493202 0.68416667 1.4013042e-38
-0.12764227 -0.25276774 0.68118757 1.4105231e-38
-0.18313693 -0.24464402 0.68348652 1.0779306e-38
-0.17867568 -0.24864681 0.68757159 1.0779298e-38
-0.13244329 -0.24868521 0.68781829 1.4105234e-38
-0.12484913 -0.24544758 0.68473768 1.4289989e-38
-0.11736848 -0.24263951 0.68154556 1.5211589e-38
-0.19307439 -0.23421592 0.68535477 1.1055532e-38
-0.18843187 -0.23861265 0.68354547 1.0595625e-38
-0.12198138 -0.23857398 0.68777782 1.4658413e-38
-0.11444125 -0.23585205 0.68501967 1.5489264e-38
-0.1070385 -0.23224995 0.68178946 1.6319386e-38
-0.20005335 -0.22148763 0.68200004 1.1053725e-38
-0.19698708 -0.22552891 0.68452781 1.0963333e-38
-0.11111492 -0.22879176 0.68900001 1.5857695e-38
-0.10442733 -0.22541158 0.68498248 1.6596333e-38
-0.09683501 -0.22267459 0.68200004 1.7149871e-38
-0.20481968 -0.21524043 0.68399996 1.0871133e-38
-0.19941144 -0.21968001 0.68650007 1.0413033e-38
-0.10178097 -0.21906698 0.68800008 1.678144e-38
-0.094210662 -0.21657787 0.68557143 1.7241345e-38
-0.087139972 -0.21338363 0.68210351 1.751757e-38
-0.21230572 -0.20408192 0.6838125 1.1054457e-38
-0.20914945 -0.20831898 0.68472737 1.1054092e-38
-0.09055429 -0.20998095 0.68900001 1.7517572e-38
-0.083872736 -0.20609055 0.68579584 1.7517935e-38
-0.076661281 -0.20266566 0.68251723 1.7609769e-38
-0.22158192 -0.19270799 0.68506253 1.0869703e-38
-0.2179849 -0.19639929 0.68399996 1.0685673e-38
-0.073097259 -0.19648486 0.68594444 1.7702322e-38
-0.065881334 -0.19383472 0.68329799 1.7702681e-38
-0.058614101 -0.1911421 0.68080008 1.7978556e-38
-0.23030858 -0.18058287 0.68700004 1.1054454e-38
-0.22586922 -0.18507424 0.68522859 1.0961513e-38
-0.063088544 -0.18693276 0.68737042 1.7610128e-38
-0.055423107 -0.18489999 0.68309259 1.7794876e-38
-0.048265714 -0.18139952 0.68024993 1.7886713e-38
-0.23395127 -0.17347653 0.68409091 1.0777852e-38
-0.22993144 -0.17861906 0.68200004 1.0961531e-38
-0.053699385 -0.17824796 0.68613052 1.788707e-38
-0.045290992 -0.17443654 0.6838215 1.7886713e-38
-0.038885716 -0.1717438 0.68050003 1.788635e-38
-0.241953 -0.16186698 0.68492305 1.0502704e-38
-0.23820575 -0.16674723 0.68422228 1.0594185e-38
-0.041945606 -0.16718954 0.68694448 1.7794878e-38
-0.035498582 -0.16409671 0.68398112 1.7978902e-38
-0.028709842 -0.16186626 0.68166667 1.7979265e-38
-0.031669442 -0.15846148 0.6875456 1.7979263e-38
-0.024754435 -0.1550013 0.68386275 1.7979266e-38
-0.01776425 -0.15198126 0.68107688 1.8071103e-38
-0.021695238 -0.14867592 0.68728572 1.7979626e-38
-0.014901496 -0.14510764 0.68432665 1.7979628e-38
-0.0070238658 -0.14191787 0.68135297 1.8255134e-38
-0.012152064 -0.13758107 0.68755561 1.81633e-38
-0.0049221921 -0.13531078 0.68433958 1.8163655e-38
0.0027322823 -0.13260499 0.68231022 1.8348047e-38
-0.0017485715 -0.12936255 0.68833339 1.8256205e-38
0.0055884183 -0.12566975 0.68614006 1.8348046e-38
0.01372884 -0.12366636 0.68233347 1.8532081e-38
0.021401905 -0.12063429 0.68099999 1.8532443e-38
0.0081957141 -0.11901191 0.68850005 1.8348047e-38
0.016145108 -0.11610564 0.68540823 1.8624274e-38
0.024176119 -0.1136363 0.68212187 1.8624633e-38
0.031085715 -0.11009524 0.68000001 1.8808668e-38
0.019685714 -0.10892762 0.68900001 1.8532799e-38
0.025992084 -0.10707775 0.68602639 1.8716468e-38
0.033783734 -0.1037856 0.68367571 1.890122e-38
0.041215241 -0.10027714 0.68150002 1.8810103e-38
0.037324481 -0.097244017 0.68760008 1.9085609e-38
0.044746827 -0.094306968 0.68475866 1.8993775e-38
0.051773757 -0.092156395 0.68144447 1.9177808e-38
0.047050476 -0.088600777 0.68810004 1.9269641e-38
0.055681448 -0.085490711 0.68499988 1.9177808e-38
0.06312307 -0.082787082 0.68239135 1.9270002e-38
0.058591112 -0.078047946 0.68866676 1.9546223e-38
0.065308847 -0.076344073 0.68636 1.9454389e-38
0.073918268 -0.07336022 0.68314284 1.9270359e-38
0.082886674 -0.070881434 0.68125004 1.6599208e-38
0.076516345 -0.065926351 0.6862821 1.9084886e-38
0.084835209 -0.065355912 0.68383312 1.2996385e-38
0.091451429 -0.068447627 0.68171436 1.5022542e-38
-0.1719161 -0.26227698 0.69523525 9.8580548e-39
-0.16460615 -0.26611933 0.69489366 7.9223249e-39
-0.1559737 -0.26390132 0.69221598 1.3552779e-38
-0.1485143 -0.2606667 0.69000006 1.410488e-38
-0.17551976 -0.25612292 0.69421744 1.0318684e-38
-0.15328762 -0.25624391 0.69625002 1.4104878e-38
-0.14553431 -0.2540786 0.69280457 1.4011962e-38
-0.13892382 -0.25171509 0.69085723 1.392157e-38
-0.18403499 -0.24309607 0.69418526 1.0687472e-38
-0.17857498 -0.24815783 0.69300002 1.0595292e-38
-0.15023619 -0.24928573 0.69800001 1.4196703e-38
-0.14355145 -0.24690698 0.69624251 1.401196e-38
-0.13524161 -0.24424787 0.69336373 1.4104876e-38
-0.1283859 -0.24177526 0.69060004 1.4197786e-38
-0.19129118 -0.23283538 0.69386953 1.087114e-38
-0.1886197 -0.23806506 0.69533336 1.096333e-38
-0.13236091 -0.23799708 0.69735295 1.4104879e-38
-0.12476953 -0.23513536 0.69448012 1.456586e-38
-0.11688491 -0.23179135 0.69093764 1.5121197e-38
-0.19573125 -0.22526991 0.69433349 1.0688181e-38
-0.12128477 -0.22818319 0.69716668 1.493394e-38
-0.11482844 -0.2252166 0.69428867 1.5488545e-38
-0.10852738 -0.22198527 0.69062507 1.6134637e-38
-0.20435628 -0.21433906 0.6935001 1.1054814e-38
-0.19989525 -0.2197524 0.69500005 1.0963335e-38
-0.11156047 -0.21813858 0.69725001 1.5857689e-38
-0.10469151 -0.21546209 0.69400018 1.650414e-38
-0.096459664 -0.2126486 0.69068015 1.7057314e-38
-0.21288538 -0.20325822 0.69420004 1.0777513e-38
-0.20830724 -0.20779914 0.69453853 1.0962965e-38
-0.10104381 -0.20873524 0.69800001 1.6967264e-38
-0.094312385 -0.20549794 0.69434625 1.7333898e-38
-0.087436698 -0.20251429 0.69110531 1.7609766e-38
-0.22085199 -0.19083838 0.69371432 1.0869694e-38
-0.21781346 -0.19656561 0.69410723 1.0869345e-38
-0.091272384 -0.19849461 0.6978333 1.7609767e-38
-0.083738834 -0.19616766 0.69395673 1.7701966e-38
-0.076726824 -0.19329567 0.69141948 1.7702682e-38
-0.23000002 -0.18005715 0.69000006 1.1237758e-38
-0.22467363 -0.18427767 0.69418436 1.086933e-38
-0.081062227 -0.1887016 0.69766665 1.7611208e-38
-0.074438557 -0.18555376 0.69529641 1.7795236e-38
-0.066164307 -0.18369921 0.69165862 1.7794515e-38
-0.23297234 -0.17504776 0.69391179 1.0777506e-38
-0.22861485 -0.17869714 0.69700003 1.086896e-38
-0.07046476 -0.17948571 0.69800001 1.797855e-38
-0.063425429 -0.17638676 0.69582361 1.7702319e-38
-0.056071755 -0.17391451 0.69277793 1.788671e-38
-0.049614292 -0.17184287 0.69000006 1.797855e-38
-0.053609379 -0.16671297 0.69507706 1.7978907e-38
-0.045853678 -0.16411754 0.69215572 1.7887068e-38
-0.038771428 -0.16034287 0.69000006 1.8070741e-38
-0.043560345 -0.15653372 0.69681829 1.779415e-38
-0.035543937 -0.15437798 0.69315022 1.7979263e-38
-0.028490162 -0.15187272 0.69033337 1.8071103e-38
-0.032983121 -0.14766045 0.69640923 1.80711e-38
-0.025429266 -0.14476077 0.69323647 1.8163297e-38
-0.018626034 -0.14276065 0.6902501 1.8071103e-38
-0.02283035 -0.13785358 0.69679999 1.8255489e-38
-0.015966995 -0.13448444 0.6936124 1.825549e-38
-0.007458413 -0.13115831 0.69088888 1.8255131e-38
-0.012765476 -0.12702754 0.69620836 1.825513e-38
-0.0052914289 -0.12491007 0.69398153 1.8255852e-38
0.001392381 -0.12279028 0.69099998 1.825621e-38
-0.0026565988 -0.1187271 0.69700009 1.8256213e-38
0.0051654987 -0.11550986 0.69467932 1.8347686e-38
0.012811691 -0.1129356 0.69163638 1.8439883e-38
0.0088634919 -0.10857779 0.69800007 1.8255483e-38
0.015537419 -0.10555176 0.69442874 1.844024e-38
0.024203941 -0.10245452 0.69144839 1.8808301e-38
0.03154286 -0.10120001 0.69000006 1.8993414e-38
0.019278094 -0.099049523 0.69800001 1.84406e-38
0.025794957 -0.09637896 0.69600016 1.8532799e-38
0.033685565 -0.094113335 0.69277555 1.8993414e-38
0.040742859 -0.090685718 0.69000006 1.9086687e-38
0.036882427 -0.086664878 0.69612128 1.8993415e-38
0.044902634 -0.084530644 0.69303942 1.9270359e-38
0.052074797 -0.081883073 0.69040012 1.9362191e-38
0.047135141 -0.077372335 0.69657898 1.9362555e-38
0.054815706 -0.074812591 0.69396234 1.945403e-38
0.063241459 -0.071757212 0.6908825 1.9545866e-38
0.059356831 -0.068659052 0.69766665 1.9362558e-38
0.065928772 -0.065953836 0.69421577 1.963842e-38
0.072654963 -0.063281238 0.69161552 1.9639141e-38
0.086523816 -0.060676195 0.69000006 1.5763672e-38
0.067460954 -0.059494097 0.6972 1.9638782e-38
0.075290568 -0.057569776 0.69509685 1.5670777e-38
0.083604649 -0.057406783 0.69320005 1.4197432e-38
-0.17081259 -0.26076993 0.70280004 8.568395e-39
-0.16597921 -0.26189959 0.70207715 8.1985573e-39
-0.17481169 -0.25545093 0.70410019 9.4896436e-39
-0.1644268 -0.25574911 0.7049132 1.124571e-38
-0.15687537 -0.25295094 0.70176017 1.4289276e-38
-0.18321064 -0.24321762 0.70337498 1.0594563e-38
-0.17902477 -0.24785264 0.70337504 1.0226502e-38
-0.16141365 -0.24896637 0.70716667 1.4565141e-38
-0.15420102 -0.24678561 0.7047838 1.4288556e-38
-0.14615101 -0.24292153 0.70305413 1.4103796e-38
-0.13866667 -0.24000001 0.70000005 1.41038e-38
-0.19052003 -0.23301791 0.70390004 1.0962626e-38
-0.1879321 -0.23622844 0.70596009 1.0778229e-38
-0.14320639 -0.23699653 0.70619231 1.4288186e-38
-0.13556339 -0.23416886 0.7028724 1.4196352e-38
-0.12816367 -0.23160431 0.70150006 1.4289639e-38
-0.20111176 -0.22117969 0.70233339 1.1054811e-38
-0.19516413 -0.22556756 0.70465642 1.0778946e-38
-0.13259864 -0.22727102 0.70640916 1.438111e-38
-0.1249612 -0.22473094 0.70402044 1.4658068e-38
-0.11795976 -0.2215693 0.70074999 1.5303069e-38
-0.20294333 -0.21468915 0.70483345 1.0962977e-38
-0.19962478 -0.21911669 0.70574999 1.0962619e-38
-0.12172438 -0.21783617 0.70770007 1.5118319e-38
-0.11505941 -0.21514504 0.70446813 1.5672935e-38
-0.10726668 -0.21160655 0.70118749 1.6595253e-38
-0.21240528 -0.20257017 0.70405561 1.0778217e-38
-0.20733809 -0.20727201 0.70365 1.0687095e-38
-0.11152349 -0.20699969 0.70683336 1.6226106e-38
-0.10452627 -0.2048963 0.70318192 1.6687808e-38
-0.097543381 -0.20187934 0.70063639 1.7333176e-38
-0.2200762 -0.19111747 0.70166671 1.0502721e-38
-0.21777943 -0.19512534 0.7045601 1.0869703e-38
-0.1022644 -0.19827965 0.70727283 1.6964397e-38
-0.095382109 -0.19495165 0.70450956 1.7333539e-38
-0.087431885 -0.19257683 0.70147836 1.7518292e-38
-0.22317402 -0.18542352 0.70343482 1.0686018e-38
-0.21950667 -0.18920666 0.70700002 1.0961531e-38
-0.092378907 -0.18797101 0.70761549 1.7425731e-38
-0.084711649 -0.18511163 0.70435315 1.7702322e-38
-0.076350808 -0.18118969 0.70116675 1.788671e-38
-0.2288124 -0.17863572 0.70250005 1.0777496e-38
-0.081718102 -0.17892349 0.70716667 1.788635e-38
-0.074832387 -0.17570259 0.7050401 1.7794517e-38
-0.067228332 -0.17334141 0.70166683 1.7702318e-38
-0.071605474 -0.16898738 0.70762503 1.7886352e-38
-0.063686609 -0.16580552 0.70468903 1.7794519e-38
-0.055894434 -0.16265307 0.70221454 1.7886352e-38
-0.060685713 -0.15913142 0.708 1.7885993e-38
-0.054557186 -0.15564597 0.70572925 1.7886712e-38
-0.047257077 -0.15356013 0.70189667 1.7886705e-38
-0.052594285 -0.14969143 0.70800006 1.7794529e-38
-0.043510646 -0.14614853 0.70565236 1.7886346e-38
-0.035654269 -0.14358956 0.70348841 1.7978907e-38
-0.028666668 -0.14 0.70000005 1.8071104e-38
-0.040457144 -0.13890286 0.708 1.7978181e-38
-0.033949092 -0.13647659 0.70687884 1.7702676e-38
-0.025829762 -0.1338874 0.70279169 1.7978546e-38
-0.018680001 -0.13142668 0.70050001 1.8530995e-38
-0.023279877 -0.12718783 0.70636678 1.8070739e-38
-0.01578672 -0.12370496 0.70305425 1.8162934e-38
-0.0093333339 -0.12133334 0.70000005 1.8163652e-38
-0.012851512 -0.11680894 0.70526093 1.8071456e-38
-0.0056258705 -0.1146675 0.70303643 1.8163655e-38
0.0019488647 -0.11203665 0.70023078 1.8255487e-38
-0.0032573016 -0.10793396 0.70758337 1.8163286e-38
0.0046020988 -0.10506455 0.70308483 1.8254766e-38
0.012941101 -0.10128279 0.70107704 1.8347323e-38
0.0076283184 -0.097837977 0.70686674 1.8439162e-38
0.014972361 -0.095103718 0.703915 1.8439877e-38
0.023160152 -0.092697434 0.70044005 1.8439517e-38
0.018509524 -0.088847615 0.70674998 1.8531717e-38
0.025570773 -0.08589974 0.70450008 1.8624273e-38
0.033819858 -0.08307296 0.70175767 1.9085605e-38
0.04066667 -0.080000006 0.70000005 1.9270359e-38
0.028646667 -0.079200476 0.70775002 1.9085249e-38
0.035797942 -0.076105431 0.70602715 1.9177805e-38
0.043703668 -0.073960364 0.70306385 1.9361833e-38
0.052246671 -0.07114476 0.70033336 1.9453673e-38
0.047422331 -0.066085905 0.70631254 1.9454389e-38
