# .PCD v0.7 - Point Cloud Data file format
VERSION 0.7
FIELDS x y z rgb
SIZE 4 4 4 4
TYPE F F F F
COUNT 1 1 1 1
WIDTH 982
HEIGHT 1
VIEWPOINT 0 0 0 0 1 0 0
POINTS 982
DATA ascii
0.099285834 -0.19631992 0.5189445 1.9178167e-38
0.10408652 -0.19438899 0.5145579 1.8439521e-38
-0.29269958 -0.18383311 0.51900005 9.3048866e-39
0.10607085 -0.18523934 0.51410812 1.908633e-38
0.1108508 -0.1847873 0.51000005 1.8163279e-38
0.10796926 -0.1759883 0.51606959 1.8901585e-38
0.11137781 -0.17258815 0.5110386 1.9086334e-38
0.10937848 -0.16638477 0.51876932 1.8901225e-38
0.1129289 -0.16457571 0.5136404 1.8809391e-38
0.11529974 -0.15501763 0.51415157 1.8809388e-38
0.12045715 -0.15105715 0.51000005 1.8809754e-38
0.11787979 -0.14547697 0.51581544 1.8901227e-38
0.12106297 -0.14454991 0.51177412 1.8809392e-38
0.11898105 -0.13617292 0.5179286 1.8993781e-38
0.12228292 -0.13414007 0.51388896 1.899378e-38
0.11961716 -0.12950286 0.51900005 1.9177449e-38
0.12480706 -0.12492121 0.51478308 1.8993421e-38
0.13017143 -0.12045715 0.51000005 1.8900869e-38
0.12760167 -0.11557627 0.51545841 1.9085615e-38
0.1311606 -0.11347362 0.51138467 1.9178169e-38
0.12900288 -0.1061338 0.51741385 1.8717913e-38
0.13241163 -0.10450023 0.51350802 1.890266e-38
0.13517709 -0.094976977 0.51442313 1.8809388e-38
0.13750337 -0.085788652 0.51636243 1.8717191e-38
0.14125656 -0.083837263 0.51182055 1.8717553e-38
0.13859352 -0.077802002 0.51770008 1.8717198e-38
0.14328466 -0.074587546 0.5137766 1.8717551e-38
0.14602889 -0.064958595 0.51451015 1.8440967e-38
0.14804772 -0.056207959 0.5167309 1.7887785e-38
0.15352008 -0.05461026 0.51397258 1.7887789e-38
0.1492743 -0.048934288 0.51900005 1.7610118e-38
0.15152571 -0.048863575 0.51825005 1.7886352e-38
-0.13121715 -0.030835558 0.51666665 1.3180002e-38
-0.12417804 -0.032559533 0.51238471 1.2352767e-38
-0.11528075 -0.032246087 0.51250947 1.0507419e-38
-0.10462712 -0.032560073 0.51198214 1.032375e-38
-0.094911814 -0.032289781 0.51175922 1.02319e-38
-0.085318491 -0.031896628 0.51245463 1.0416301e-38
-0.07484518 -0.032136805 0.51164013 1.0508853e-38
-0.064849138 -0.031864595 0.51241863 1.0508496e-38
-0.054467414 -0.033470634 0.51159203 1.1153879e-38
-0.046684235 -0.033005185 0.51218015 1.2075837e-38
-0.039314289 -0.030468574 0.51600003 1.3001462e-38
-0.13316248 -0.027283173 0.51836663 1.2352035e-38
-0.12503415 -0.027986864 0.51697522 1.0231191e-38
-0.11505061 -0.027913794 0.51741314 1.0507774e-38
-0.10538556 -0.028427096 0.51754832 1.0692169e-38
-0.095062725 -0.027881581 0.51800019 1.0232632e-38
-0.085052624 -0.027538685 0.51748097 1.0416663e-38
-0.074973874 -0.027858559 0.51681411 1.0417382e-38
-0.065220557 -0.027950883 0.51619059 1.0508858e-38
-0.055295248 -0.028392654 0.51657146 1.0600335e-38
-0.045015045 -0.028626664 0.51765513 1.0968393e-38
-0.036247626 -0.028888255 0.51900005 1.3554212e-38
-0.10194644 -0.0016064286 0.51900005 8.3047813e-40
-0.094199993 -0.003199962 0.51722461 1.6606144e-39
-0.084850833 -0.0053373585 0.51608169 2.9517175e-39
-0.075267084 -0.0052900808 0.51597923 4.6119703e-39
-0.067985997 -0.0029485715 0.51655 2.4896548e-39
-0.10258083 0.0050620469 0.51681489 1.0141491e-39
-0.095013656 0.0047811777 0.5138613 1.9364796e-39
-0.084929414 0.00391577 0.51152331 3.6885623e-39
-0.074920021 0.0044189268 0.51229101 4.8878285e-39
-0.065496705 0.0053374604 0.5154019 2.4903652e-39
-0.058157146 0.0093638096 0.51750004 1.7513708e-39
-0.10283495 0.016840002 0.51100004 1.3825743e-39
-0.096412867 0.010711906 0.51125002 2.5861734e-39
-0.070080005 0.010706668 0.51100004 5.9927173e-39
-0.063844427 0.015049797 0.51223439 3.9640562e-39
-0.058485717 0.011499683 0.51750004 2.3045152e-39
-0.10389878 0.020863133 0.51114297 1.8414085e-39
-0.062900007 0.02064286 0.51000005 2.2116357e-39
-0.11190756 0.076001622 0.51053858 4.7931078e-39
-0.10497092 0.076899007 0.51469713 4.8870929e-39
-0.098362871 0.079085723 0.51900005 7.3788916e-39
-0.065391868 0.078697242 0.51618189 3.7785719e-39
-0.12288572 0.089371435 0.51000005 1.3642058e-38
-0.11260953 0.088488072 0.5101766 1.3641691e-38
-0.1039145 0.085168146 0.51259565 8.2050481e-39
-0.09617909 0.085816815 0.51677394 8.9466069e-39
-0.084510408 0.087668113 0.51832014 8.4823777e-39
-0.074605033 0.085853413 0.51717085 6.8235668e-39
-0.065552562 0.084631115 0.51290691 5.9916411e-39
-0.055070799 0.088696197 0.51170009 1.2996694e-38
-0.045612454 0.088489234 0.51115394 1.3180002e-38
-0.033777319 0.089379393 0.51309103 1.3087807e-38
-0.027907241 0.088681534 0.51050013 1.3363312e-38
-0.13266125 0.093937643 0.51506454 1.3271838e-38
-0.12431682 0.094119541 0.51572132 1.308816e-38
-0.11549854 0.094235778 0.5164783 1.3456951e-38
-0.10530768 0.092803732 0.51659524 1.3733889e-38
-0.094861709 0.092123181 0.51693028 1.1522657e-38
-0.084951833 0.092468828 0.51623541 1.1246792e-38
-0.075660214 0.092219256 0.51632571 9.95497e-39
-0.064944901 0.092422508 0.51758993 1.2534634e-38
-0.054500811 0.092453733 0.51434219 1.30878e-38
-0.044635419 0.094005957 0.51812547 1.2811228e-38
-0.034952205 0.093184598 0.51729411 1.3455868e-38
-0.029150479 0.092777699 0.5150001 1.5205059e-38
-0.28080004 -0.20007621 0.52000004 9.1223143e-39
-0.27361301 -0.20190306 0.52293116 9.0293802e-39
-0.26531735 -0.20359713 0.52623469 9.1212101e-39
-0.25757566 -0.20651431 0.52875012 9.2134043e-39
0.089678101 -0.2047482 0.52900004 1.871719e-38
0.093690082 -0.20320199 0.52492875 1.8901943e-38
-0.29106838 -0.19113396 0.52233338 9.2123393e-39
-0.28379253 -0.19288422 0.52360463 9.212691e-39
-0.27586845 -0.19761418 0.52579749 9.3052496e-39
-0.26798478 -0.19880132 0.52815396 9.3048937e-39
0.096101411 -0.19521789 0.52424991 1.8809388e-38
0.1000381 -0.19017144 0.52000004 1.8994137e-38
-0.29225564 -0.18595861 0.5260579 9.212684e-39
-0.28724784 -0.1882277 0.52678138 9.3974284e-39
0.098066784 -0.18585798 0.52570003 1.8624998e-38
0.10136785 -0.18387885 0.52239996 1.8625001e-38
0.099383429 -0.17693602 0.52810001 1.8809387e-38
0.10336981 -0.17457733 0.52418065 1.8809387e-38
0.10601283 -0.16502652 0.52459151 1.880939e-38
0.10782804 -0.15538788 0.52628583 1.8901584e-38
0.11160406 -0.15330954 0.5220589 1.8901584e-38
0.10930834 -0.14576308 0.528 1.8901587e-38
0.1130912 -0.14472213 0.5237177 1.9085615e-38
0.11550525 -0.13518241 0.5252049 1.8993421e-38
0.11808308 -0.12637559 0.52598155 1.8901584e-38
0.12101391 -0.12244142 0.5222609 1.8901228e-38
0.11954142 -0.11903811 0.52850002 1.8808665e-38
0.123123 -0.11475922 0.52374667 1.8901584e-38
0.12618883 -0.10507905 0.52489465 1.862464e-38
0.13050096 -0.10061524 0.523 1.8533878e-38
0.12829722 -0.095964 0.5262326 1.8440967e-38
0.13112371 -0.093951188 0.52272731 1.8717191e-38
0.12963392 -0.086656205 0.5284 1.8533162e-38
0.13298044 -0.084691443 0.52415389 1.8625359e-38
0.13636203 -0.074998572 0.52473414 1.8625354e-38
0.14084573 -0.071512394 0.52000004 1.853388e-38
0.13848811 -0.065718047 0.52636844 1.8440963e-38
0.14175694 -0.064176075 0.52327096 1.8533163e-38
0.13966191 -0.058778092 0.52750003 1.82573e-38
0.1439265 -0.054697797 0.524643 1.8348767e-38
0.14659138 -0.046485569 0.52606356 1.76112e-38
0.15073657 -0.044361468 0.52569234 1.7887066e-38
-0.14113587 -0.021454602 0.52800006 1.0049673e-38
-0.13406375 -0.022432113 0.52502006 1.0414864e-38
-0.124993 -0.02307033 0.52479106 1.0416291e-38
-0.11493273 -0.022849884 0.52544135 1.0415587e-38
-0.10486688 -0.023368543 0.52440804 1.0324107e-38
-0.095081545 -0.022678578 0.52426577 9.8645653e-39
-0.084921591 -0.02246378 0.52346557 8.8518637e-39
-0.07541509 -0.022951286 0.52286899 9.8652967e-39
-0.064951234 -0.022964813 0.52432871 1.0878001e-38
-0.054882433 -0.023377111 0.52437675 1.0877637e-38
-0.044949479 -0.023506267 0.52429277 1.0877278e-38
-0.03531082 -0.024036039 0.52483147 1.1338982e-38
-0.029032856 -0.023774287 0.52562499 1.5303393e-38
-0.11335715 -0.019144766 0.52900004 1.0323744e-38
-0.10273303 -0.016105559 0.52833354 5.2555208e-39
-0.094810888 -0.015134858 0.52524722 2.6737013e-39
-0.084779747 -0.014962646 0.52331132 2.8595275e-39
-0.074740149 -0.0151786 0.52357435 5.3498941e-39
-0.066783667 -0.016976189 0.5271191 6.4558689e-39
-0.055922858 -0.019144764 0.52900004 1.0970913e-38
-0.035266668 -0.019144766 0.52900004 1.1338249e-38
-0.1044145 -0.002647619 0.52149999 1.1063476e-39
-0.095804885 -0.0077508553 0.5215112 1.8442938e-39
-0.089314289 -0.0099238101 0.52100003 2.5843853e-39
-0.07180953 -0.0099047627 0.52000004 4.7038072e-39
-0.058459323 -0.0014225852 0.52271432 1.5694795e-39
-0.11057714 0.0014942857 0.523 5.5569612e-40
-0.10749412 0.0019888312 0.52209091 1.5666054e-39
-0.061194479 0.003569524 0.52069998 1.4765748e-39
-0.057652187 0.0037868428 0.52165127 1.3836617e-39
-0.095361903 0.068928257 0.52700001 2.6736901e-39
-0.10149597 0.07393261 0.52119052 4.3321128e-39
-0.094843715 0.074972317 0.52499115 5.0703953e-39
-0.085169077 0.075756647 0.52644587 4.1484432e-39
-0.075016327 0.076196946 0.52362341 3.410874e-39
-0.068731047 0.075408511 0.52093339 3.1339171e-39
-0.092737846 0.082822293 0.52175611 9.5916063e-39
-0.085422754 0.08300107 0.52168369 8.1157574e-39
-0.076576434 0.081537232 0.52125007 6.0856332e-39
-0.11281345 0.098554604 0.52233338 1.3548067e-38
-0.10468908 0.097637273 0.52204669 1.3457311e-38
-0.095357291 0.09730722 0.52228576 1.299669e-38
-0.085105605 0.098124094 0.52565527 1.2905211e-38
-0.074211672 0.097031869 0.5232051 1.2904492e-38
-0.06517534 0.09712974 0.52284211 1.2903778e-38
-0.058653515 0.096945465 0.52272731 1.2995981e-38
-0.04506667 0.09607619 0.52000004 1.2719027e-38
-0.038487077 0.096359186 0.52000004 1.2903051e-38
-0.093578674 0.10115669 0.5268501 1.2628265e-38
-0.085234165 0.10155392 0.52770007 1.244316e-38
-0.07449051 0.10213435 0.52848661 1.2258766e-38
-0.066053137 0.10203379 0.52810013 1.2627545e-38
-0.24196571 -0.2103162 0.53600001 9.3970711e-39
-0.23374161 -0.21055019 0.5372501 9.212684e-39
-0.22948891 -0.21102034 0.53866673 9.7640655e-39
0.083643824 -0.2107162 0.53800005 1.834877e-38
-0.26234961 -0.20130521 0.53296661 9.2137616e-39
-0.25456831 -0.20387638 0.53410536 9.2126952e-39
-0.24539411 -0.20531064 0.53600889 9.3045349e-39
-0.23776932 -0.20795214 0.53690624 9.2130455e-39
0.087033242 -0.20501719 0.53507459 1.8533157e-38
0.090840846 -0.20102011 0.53122222 1.8624996e-38
-0.28165784 -0.19189861 0.53123534 9.3052454e-39
-0.27448589 -0.19313353 0.53382176 9.3052454e-39
-0.26600149 -0.19671258 0.53567427 9.2130498e-39
-0.25664237 -0.19965382 0.53787506 9.3052622e-39
-0.24594288 -0.19982858 0.53800005 9.3974676e-39
0.088437572 -0.19628753 0.53724247 1.853316e-38
0.092118338 -0.19402543 0.53269821 1.8533517e-38
-0.29412282 -0.18188165 0.53361678 9.2137602e-39
-0.28511679 -0.18516706 0.53501618 9.3974396e-39
-0.27652177 -0.18849812 0.53753841 9.3048993e-39
0.093914345 -0.18502544 0.53413403 1.8717193e-38
-0.3003943 -0.17851715 0.53100002 9.3067041e-39
-0.2954585 -0.17719704 0.53665817 9.3970865e-39
-0.2867687 -0.17822342 0.53833336 9.2134155e-39
0.096729323 -0.17507476 0.53452706 1.8533164e-38
0.10057296 -0.17119771 0.53120005 1.8809385e-38
0.098012477 -0.16571464 0.5363673 1.8900866e-38
0.10188311 -0.1645208 0.53265792 1.8900864e-38
0.099339381 -0.15890731 0.53766674 1.8992703e-38
0.1031723 -0.15507238 0.53409851 1.8901943e-38
0.10665829 -0.1452778 0.53468055 1.8901227e-38
0.10822215 -0.13631831 0.53642106 1.8717551e-38
0.11146612 -0.13397002 0.53247613 1.8901224e-38
0.1094147 -0.12830831 0.53828579 1.8624996e-38
0.11396554 -0.12477498 0.53439009 1.8717194e-38
0.11659583 -0.11555874 0.53459996 1.8532801e-38
0.12075171 -0.11288301 0.53050011 1.8716831e-38
0.11864217 -0.10586917 0.53636855 1.8533163e-38
0.1220208 -0.10403368 0.53225994 1.8624638e-38
0.11938381 -0.099401906 0.53799999 1.8809025e-38
0.12439483 -0.09487512 0.53430951 1.8440966e-38
0.12667131 -0.085301511 0.53518492 1.8440607e-38
0.1304743 -0.080913022 0.53100008 1.8441326e-38
0.12875767 -0.075946786 0.53703123 1.844132e-38
0.13220234 -0.074019253 0.53262967 1.8533517e-38
0.13457021 -0.06508866 0.53396428 1.8533157e-38
0.13732526 -0.055178363 0.53484851 1.8440964e-38
0.14073607 -0.053218693 0.53156257 1.8256933e-38
0.13839404 -0.04758203 0.53700006 1.8348773e-38
0.1431928 -0.04390651 0.53379732 1.7795594e-38
0.15025525 -0.040609527 0.53300005 1.7610482e-38
0.14531386 -0.037915342 0.53700006 1.742681e-38
0.15013841 -0.039402541 0.53500003 1.7518292e-38
-0.14190573 -0.020200001 0.53025001 1.0967663e-38
-0.13780001 -0.020190477 0.53000003 1.0599611e-38
-0.1246762 -0.020190477 0.53000003 1.0140786e-38
-0.030285716 -0.020190477 0.53000003 1.0601022e-38
-0.027319429 -0.020741904 0.53120011 1.3919388e-38
-0.14348449 -0.015508917 0.53412724 1.0230823e-38
-0.13495827 -0.016089763 0.53417796 1.0784002e-38
-0.12483612 -0.015881201 0.53371066 1.0507055e-38
-0.11489391 -0.01544248 0.53367156 9.8631261e-39
-0.10622722 -0.016080882 0.53100008 8.1117819e-39
-0.063508421 -0.014819249 0.53081584 4.0580847e-39
-0.055287704 -0.015091295 0.5339998 9.5890714e-39
-0.045253616 -0.016115885 0.53467119 1.1245695e-38
-0.034787342 -0.016497782 0.53437257 1.1338248e-38
-0.027093286 -0.01618807 0.53413153 1.1707774e-38
-0.056466669 -0.0092400005 0.53900003 1.5655853e-39
-0.064980671 0.10486857 0.53214997 1.1429374e-38
-0.055689804 0.10384313 0.53346354 1.1612308e-38
-0.048354119 0.10446026 0.5329091 1.1331768e-38
-0.23267239 -0.21053715 0.54050004 9.3045111e-39
-0.22430018 -0.21136433 0.54233336 9.5804015e-39
-0.21551475 -0.21249174 0.54661822 9.5804086e-39
-0.20904715 -0.21505763 0.54875004 9.3048993e-39
0.077324532 -0.21242189 0.54658622 1.853316e-38
0.08121933 -0.21137854 0.54171437 1.8624274e-38
-0.25344795 -0.20045364 0.54200006 9.396732e-39
-0.24244525 -0.20171353 0.5422188 9.3974424e-39
-0.23487 -0.20479983 0.54323858 9.3970809e-39
-0.22563328 -0.2075206 0.54498631 9.4885604e-39
-0.21920002 -0.20980573 0.54800004 9.397811e-39
0.078398518 -0.20655543 0.54743761 1.862464e-38
0.082449622 -0.2044044 0.54341942 1.8624637e-38
-0.27051428 -0.19028571 0.54000002 9.3974578e-39
-0.26355207 -0.19339274 0.54237193 9.3970809e-39
-0.25508809 -0.19520207 0.5442999 9.2126882e-39
-0.24581212 -0.19735934 0.54622787 9.3967207e-39
-0.23946857 -0.19920859 0.54900002 9.4892793e-39
0.079474285 -0.19920859 0.54900002 1.880938e-38
0.084156983 -0.19478846 0.54451776 1.8533163e-38
-0.28143904 -0.18275718 0.54161537 9.4892835e-39
-0.27480787 -0.18446377 0.54425871 9.3048895e-39
-0.26605496 -0.1878034 0.54637313 9.3967193e-39
-0.25950477 -0.18953761 0.54825008 8.844633e-39
0.086793296 -0.18564831 0.54518068 1.8625001e-38
0.091300823 -0.18273841 0.5406 1.8901584e-38
-0.30268833 -0.1717398 0.54166669 9.3056209e-39
-0.29413608 -0.17267112 0.5442614 9.3048768e-39
-0.28550658 -0.17637621 0.5460723 9.4889234e-39
-0.27806383 -0.17916517 0.5477857 9.3963662e-39
0.088273957 -0.17609777 0.54732442 1.8624998e-38
0.092207156 -0.17444162 0.54307151 1.8717197e-38
-0.31317025 -0.16200392 0.54490906 9.3052594e-39
-0.3052848 -0.16517133 0.54465592 9.3974452e-39
-0.29745698 -0.16835824 0.54774076 9.4889136e-39
0.089491859 -0.16714498 0.54844445 1.8624637e-38
0.09389443 -0.16455592 0.54509091 1.8625e-38
-0.32452041 -0.1532917 0.54819369 9.5807491e-39
-0.31557706 -0.15696089 0.54825008 9.3967292e-39
-0.30620638 -0.15989715 0.54866672 9.213068e-39
0.09664581 -0.15541568 0.54540795 1.8532803e-38
0.10115946 -0.1521083 0.54114282 1.880939e-38
-0.33044574 -0.14744572 0.54900002 9.5818365e-39
-0.32466286 -0.14874823 0.54854548 9.3977983e-39
-0.31784004 -0.14926477 0.54800004 9.4885576e-39
0.098149836 -0.14599785 0.54695249 1.8439892e-38
0.1021328 -0.14443207 0.54215097 1.8625361e-38
0.10391182 -0.13487606 0.54438889 1.8532804e-38
0.1068676 -0.12520093 0.54541099 1.8717193e-38
0.11065635 -0.12300809 0.54041666 1.8717556e-38
0.10833127 -0.11547828 0.54764712 1.8625716e-38
0.1123382 -0.11405262 0.54308623 1.8716835e-38
0.10943858 -0.10891619 0.54850006 1.8901224e-38
0.11434561 -0.10481255 0.54440004 1.8717193e-38
0.11751425 -0.095377862 0.54503125 1.8717191e-38
0.12117297 -0.093857743 0.541125 1.8533155e-38
0.11835723 -0.086969733 0.54784626 1.8809027e-38
0.12223708 -0.084216617 0.5447458 1.8624634e-38
0.12514357 -0.075149618 0.5453375 1.8533163e-38
0.12799168 -0.065847687 0.54598004 1.8533163e-38
0.13124982 -0.063779667 0.54196429 1.8533162e-38
0.12949072 -0.057564288 0.54825008 1.853244e-38
0.13286836 -0.054946788 0.5441792 1.8440606e-38
0.13596573 -0.04455708 0.54289871 1.8164379e-38
0.13814542 -0.035854392 0.54624456 1.8163657e-38
0.14246179 -0.033750832 0.54386377 1.7703037e-38
0.14278255 -0.029043812 0.54783344 1.7795227e-38
-0.14511587 -0.01076582 0.5411666 1.0875825e-38
-0.1355644 -0.011177219 0.54107696 1.0600324e-38
-0.12522416 -0.011055064 0.54109102 1.0139354e-38
-0.11668037 -0.011022619 0.54150003 9.6787335e-39
-0.052763991 -0.010758442 0.54027271 1.0602499e-38
-0.043990478 -0.011374424 0.54117864 1.1429729e-38
-0.035173655 -0.01188503 0.54136121 1.1430446e-38
-0.027007448 -0.011460953 0.54254544 1.1430096e-38
-0.15119463 -0.0049649701 0.54613048 1.345118e-38
-0.14549294 -0.0062402901 0.54548472 1.1612318e-38
-0.13545819 -0.0066413735 0.54595083 1.0507414e-38
-0.12469081 -0.0065285107 0.5460667 9.8624059e-39
-0.11664476 -0.0063381833 0.54488659 7.7433525e-39
-0.053172659 -0.0068893554 0.54179418 6.6395455e-39
-0.045087248 -0.0074075805 0.54597872 1.1337179e-38
-0.035689749 -0.0075342855 0.54680961 1.1430083e-38
-0.025863018 -0.0080565885 0.54587495 1.1429374e-38
-0.21254888 -0.21108843 0.55195665 9.6733188e-39
-0.20521548 -0.21374212 0.55473047 9.6733118e-39
-0.19817136 -0.21724652 0.55772728 9.4892779e-39
0.069316581 -0.21612191 0.55730003 1.8348773e-38
0.072392486 -0.21346824 0.55470848 1.8533163e-38
-0.23369637 -0.20163772 0.55159456 9.581112e-39
-0.22460365 -0.20348555 0.55399984 9.4896352e-39
-0.21612141 -0.20757647 0.55493057 9.7655061e-39
-0.20773336 -0.20968448 0.5583334 9.4896212e-39
0.075021058 -0.20498009 0.5555774 1.853316e-38
-0.25304013 -0.19127797 0.55296439 9.5803875e-39
-0.24448794 -0.19336572 0.55421799 9.3974284e-39
-0.2358121 -0.19584051 0.55518264 9.3974326e-39
-0.22839715 -0.19852655 0.55864292 9.856271e-39
0.077692911 -0.19527182 0.55519676 1.8440966e-38
0.080666669 -0.19223809 0.55000001 1.8532799e-38
-0.27182892 -0.18141183 0.55164999 9.2133931e-39
-0.26435676 -0.18360473 0.5535531 9.3963606e-39
-0.25573006 -0.18720944 0.55505413 9.4881947e-39
-0.24674737 -0.18852137 0.55745161 9.3963662e-39
0.078995325 -0.18605994 0.55804551 1.8348776e-38
0.082125939 -0.18443678 0.55321151 1.85328e-38
-0.28382882 -0.17275083 0.55354995 9.3970781e-39
-0.27485555 -0.17619255 0.55486453 9.4881877e-39
-0.26741371 -0.17810762 0.55753124 9.4882073e-39
0.079857141 -0.17994477 0.55900002 1.8347702e-38
0.084502354 -0.17468485 0.55440855 1.8624278e-38
-0.31061003 -0.16096905 0.55325007 9.3970977e-39
-0.30267039 -0.16217761 0.55336845 9.4885534e-39
-0.2952629 -0.16567042 0.55458939 9.3974256e-39
-0.28790534 -0.16865662 0.55733341 9.4889122e-39
0.087051362 -0.1653852 0.55560654 1.8440967e-38
0.090652391 -0.16183969 0.55233335 1.844133e-38
-0.3229619 -0.15204096 0.55050004 9.4888926e-39
-0.3146947 -0.15518907 0.55314791 9.4885562e-39
-0.30553949 -0.15830548 0.55612248 9.4892779e-39
-0.2986657 -0.15918189 0.55900002 9.213784e-39
0.088720471 -0.1567862 0.5575 1.8532087e-38
0.091951825 -0.15426615 0.55360377 1.8440251e-38
-0.3313092 -0.14485177 0.55291671 9.7658718e-39
-0.32643634 -0.14541 0.55403572 9.6736706e-39
0.094682895 -0.14480418 0.55485505 1.8440247e-38
0.097581781 -0.13553379 0.5545001 1.8624641e-38
0.10047357 -0.13199382 0.55162501 1.8624641e-38
0.098900877 -0.12618418 0.55777276 1.8900866e-38
0.10238564 -0.12444612 0.55387723 1.8717193e-38
0.10467525 -0.11501436 0.55539995 1.8625354e-38
0.10766508 -0.10551178 0.55571938 1.8809031e-38
0.11104598 -0.1025675 0.55173337 1.8901585e-38
0.10948408 -0.0985649 0.55728579 1.8717914e-38
0.11269815 -0.094408631 0.55349213 1.8716831e-38
0.11513505 -0.084734492 0.55486494 1.8624634e-38
0.11812132 -0.075693488 0.55605888 1.853316e-38
0.12135135 -0.073359691 0.55120838 1.8625356e-38
0.11925176 -0.068397149 0.55816668 1.8624997e-38
0.12352934 -0.064627826 0.55383992 1.8440606e-38
0.12645702 -0.055509917 0.55459154 1.816402e-38
0.13074414 -0.051457465 0.55133337 1.797963e-38
0.12837221 -0.046190415 0.55564713 1.8163294e-38
0.132239 -0.044060826 0.55306387 1.8071822e-38
0.12990095 -0.039396193 0.55900002 1.8440239e-38
0.13397492 -0.034804899 0.55442452 1.816402e-38
0.13676392 -0.026891347 0.55593997 1.7979628e-38
0.1413254 -0.026005501 0.55372226 1.7703038e-38
-0.14399691 -0.0018617316 0.55181819 1.0876191e-38
-0.13411081 -0.0021724137 0.55200005 1.0322301e-38
-0.12570006 -0.0020994616 0.5517391 9.5861707e-39
-0.052268796 -0.0025346777 0.55270594 8.3898065e-39
-0.045034241 -0.0027048569 0.55212516 1.1245343e-38
-0.034309197 -0.0032659206 0.55239141 1.1337893e-38
-0.026796248 -0.0033362175 0.55325717 1.1521927e-38
-0.1503543 0 0.55200005 1.188418e-38
-0.14492591 0.0016565389 0.55629277 1.096694e-38
-0.13508816 0.0014589392 0.55768555 1.0230461e-38
-0.12666033 0.00070895249 0.55626667 9.4932534e-39
-0.053917009 0.0032705569 0.55642539 7.3752832e-39
-0.045913775 0.00098095241 0.55711538 1.1336803e-38
-0.034232602 0.00062599435 0.55752945 1.1521917e-38
-0.026555017 0.0010638548 0.55766672 1.1891423e-38
-0.19184193 -0.2207797 0.56266665 9.30596e-39
-0.18465589 -0.22060144 0.56606674 9.765869e-39
-0.17902046 -0.22181238 0.56875002 9.3970991e-39
0.063360386 -0.22117271 0.56513339 1.8256214e-38
-0.20214623 -0.21167624 0.56285179 9.7662291e-39
-0.19518214 -0.21566574 0.56490541 9.7655033e-39
-0.18710229 -0.21863794 0.56689662 9.8573332e-39
0.065373674 -0.21532477 0.56459498 1.8256576e-38
0.0704 -0.21013333 0.56 1.8440971e-38
-0.22180778 -0.20124751 0.56130773 9.5807561e-39
-0.21454202 -0.20382403 0.56423175 9.6733076e-39
-0.20595902 -0.20730598 0.56593072 9.857336e-39
-0.19942096 -0.20917524 0.56900001 1.0133554e-38
0.068168975 -0.20594659 0.56591117 1.8256576e-38
0.071229056 -0.20347181 0.56200004 1.8348412e-38
-0.23282501 -0.19280046 0.56349093 9.4889178e-39
-0.22542718 -0.19638936 0.56477791 9.7651431e-39
-0.21839581 -0.19914268 0.5679 9.8573444e-39
0.069041692 -0.19738179 0.56833333 1.8440597e-38
0.072721519 -0.19460377 0.56384379 1.8256936e-38
-0.26155391 -0.18149169 0.56093341 9.488943e-39
-0.25455281 -0.18271761 0.56288224 9.6725916e-39
-0.24521956 -0.1851095 0.56447268 9.4889192e-39
-0.23705134 -0.18855017 0.56528568 9.5804001e-39
0.075289264 -0.18510167 0.56463385 1.8348412e-38
-0.28129399 -0.17066509 0.56116664 9.1215576e-39
-0.27459142 -0.17171451 0.5635283 9.6725832e-39
-0.26450792 -0.17483345 0.56417829 9.4889164e-39
-0.25668004 -0.17807893 0.56695253 9.5803945e-39
-0.24927619 -0.17991237 0.56900001 9.67223e-39
0.077634253 -0.17581587 0.56536543 1.8348049e-38
0.081140339 -0.17332245 0.56186372 1.8348047e-38
-0.29324132 -0.16263087 0.56223077 9.3970767e-39
-0.28491727 -0.16477834 0.56426489 9.5811106e-39
-0.27749622 -0.16707982 0.56608516 9.3974396e-39
-0.26506668 -0.16985905 0.56800002 9.5822022e-39
0.079098411 -0.1678129 0.56800008 1.844061e-38
0.082601458 -0.16439582 0.56475854 1.8440611e-38
-0.32224539 -0.15159222 0.56154549 9.7654977e-39
-0.31487802 -0.15206297 0.56122226 9.5811176e-39
-0.30572724 -0.15429446 0.56433356 9.4889206e-39
-0.29567036 -0.15770435 0.56561297 9.6725958e-39
-0.28871322 -0.15919374 0.56800008 9.6725986e-39
0.085381061 -0.1550087 0.56450021 1.8532445e-38
-0.33163366 -0.14116287 0.56542861 9.6725762e-39
-0.32310417 -0.14564359 0.56508064 9.6729503e-39
-0.31626311 -0.14724082 0.5658071 9.6733202e-39
-0.30907917 -0.14917278 0.56342864 9.8562808e-39
0.087803535 -0.14571832 0.56542856 1.862428e-38
0.091303088 -0.14380491 0.56165391 1.8532444e-38
-0.33351585 -0.13697925 0.56627595 9.6725888e-39
-0.32922095 -0.13833715 0.56300002 9.6733258e-39
0.089157209 -0.13694094 0.56760001 1.8808668e-38
0.093082055 -0.13470459 0.56345314 1.8716831e-38
0.095189907 -0.12492266 0.5646528 1.8717193e-38
0.097764418 -0.11589374 0.5656383 1.8625357e-38
0.101151 -0.11399571 0.56207412 1.8717193e-38
0.099261582 -0.10810444 0.56850004 1.8625359e-38
0.10307416 -0.10460693 0.56390923 1.8624997e-38
0.10626692 -0.095178366 0.56425971 1.8624637e-38
0.11006287 -0.091362864 0.56100005 1.8624991e-38
0.10799118 -0.085664384 0.56600004 1.8624638e-38
0.11129506 -0.084347144 0.56260723 1.8532443e-38
0.10946476 -0.078576192 0.56900001 1.8531369e-38
0.11359345 -0.074695341 0.56478095 1.85328e-38
0.11664981 -0.065143786 0.56525367 1.8624637e-38
0.12083276 -0.062123813 0.56040007 1.8255854e-38
0.11861619 -0.0564197 0.5667308 1.8532799e-38
0.12228297 -0.05405606 0.56285101 1.834805e-38
0.12451122 -0.045085069 0.56449312 1.844024e-38
0.12736486 -0.035588797 0.56627589 1.8348047e-38
0.13049084 -0.033457026 0.56212497 1.8255852e-38
0.1587781 -0.030346667 0.56900001 1.7609767e-38
0.1604038 -0.030346667 0.56900001 1.7609767e-38
0.12865059 -0.026992274 0.56811112 1.8532078e-38
0.1334178 -0.024000727 0.56377953 1.7979628e-38
0.14529611 -0.022053938 0.5673182 1.4104534e-38
0.13578194 -0.017345896 0.56673819 1.4381847e-38
0.14306326 -0.018858837 0.56755555 1.4288546e-38
-0.14354642 0.0069371439 0.56332421 1.0783998e-38
-0.135121 0.0067713666 0.56390172 1.0045713e-38
-0.1288563 0.0051142857 0.56166667 9.4928947e-39
-0.050805237 0.006455238 0.56450003 1.2905949e-38
-0.044722665 0.005534844 0.56462073 1.1153135e-38
-0.035248622 0.0048538693 0.56408775 1.161376e-38
-0.026954342 0.0057670204 0.5627715 1.2996687e-38
-0.14386591 0.011358286 0.5679 9.7752731e-39
-0.13981143 0.010838095 0.56900001 9.4950485e-39
-0.18143302 -0.22070265 0.5726667 9.673679e-39
-0.17477143 -0.221948 0.57431257 9.8573458e-39
-0.16703223 -0.22411755 0.57725012 9.8573402e-39
0.057889197 -0.2230531 0.57464296 1.8072178e-38
-0.19355765 -0.21208669 0.57289356 9.9498973e-39
-0.18549544 -0.21575211 0.57536763 9.9495358e-39
-0.17763869 -0.21896976 0.5776875 1.0040672e-38
0.058814567 -0.21632925 0.57770014 1.807146e-38
0.061373878 -0.21411629 0.57381248 1.8071826e-38
-0.21145447 -0.20124583 0.57311773 9.8573247e-39
-0.20453729 -0.20378937 0.5748831 9.8576905e-39
-0.19625285 -0.20778641 0.5759818 9.9491757e-39
-0.18969144 -0.20954287 0.57900006 9.8558912e-39
0.05955429 -0.20954287 0.57900006 1.8071459e-38
0.063784428 -0.20504369 0.57382536 1.8072185e-38
-0.2309162 -0.19016668 0.57050002 9.7644397e-39
-0.22399531 -0.19301763 0.5733521 9.7651473e-39
-0.21578005 -0.19718802 0.57416379 9.8576989e-39
-0.20954287 -0.19961716 0.57900006 1.0041003e-38
0.066571586 -0.19510856 0.57496822 1.8256216e-38
0.070571437 -0.19054288 0.57000005 1.8624277e-38
-0.24301897 -0.18222712 0.57214272 9.6725972e-39
-0.23517586 -0.18577176 0.5751726 9.6725832e-39
-0.2273704 -0.1884311 0.57691312 9.7647984e-39
0.068083003 -0.18638952 0.5767895 1.8348412e-38
0.071314871 -0.18342558 0.57230777 1.834877e-38
-0.27142859 -0.17045717 0.57000005 9.5803945e-39
-0.26318079 -0.1710486 0.57230437 9.488922e-39
-0.2549749 -0.17475149 0.57376987 9.4889122e-39
-0.24584502 -0.17771496 0.57553339 9.6725818e-39
0.06942001 -0.17795669 0.57850003 1.862428e-38
0.073257394 -0.17461523 0.57409382 1.8440247e-38
-0.2820797 -0.16099049 0.57216668 9.2130441e-39
-0.27438918 -0.16451587 0.57366651 9.3963578e-39
-0.26578152 -0.16761617 0.57536077 9.4885576e-39
0.075787418 -0.16495264 0.5746389 1.8440248e-38
0.080342866 -0.1612286 0.57000005 1.8439891e-38
-0.31652382 -0.15004763 0.57500005 1.0316177e-38
-0.30361697 -0.15182455 0.5715757 9.5811162e-39
-0.29455799 -0.1536268 0.57452381 9.6729587e-39
-0.28572866 -0.1573873 0.57560283 9.4885548e-39
-0.27922922 -0.15945461 0.57866669 9.5800232e-39
0.077578709 -0.15605402 0.57689571 1.8532441e-38
0.081379354 -0.1534743 0.5723871 1.8440607e-38
-0.33069685 -0.1422708 0.57016677 9.7644453e-39
-0.32533708 -0.14177577 0.57099998 9.4892905e-39
-0.314693 -0.14416006 0.57498831 9.6729489e-39
-0.30564606 -0.14638355 0.57550621 9.6733104e-39
-0.29825029 -0.1494564 0.57780004 9.5811218e-39
0.078768812 -0.14831096 0.57837504 1.8625e-38
0.083064839 -0.14477928 0.57374191 1.8625e-38
-0.34211352 -0.13336909 0.57350004 9.7654977e-39
-0.33387867 -0.13356498 0.57225674 9.7651501e-39
-0.32567927 -0.13592778 0.5739392 9.6733146e-39
-0.31925714 -0.13933143 0.57600003 9.8566297e-39
0.085986473 -0.13526425 0.57427686 1.8624638e-38
0.090425253 -0.13115716 0.57025003 1.871683e-38
-0.34231344 -0.12636296 0.5746451 9.7651557e-39
-0.33580306 -0.12626511 0.5746845 9.7651473e-39
-0.32847565 -0.1281396 0.57428569 9.9481009e-39
0.088004246 -0.12543391 0.5764091 1.8624638e-38
0.091364048 -0.12409645 0.57212007 1.8624634e-38
0.089388572 -0.11942922 0.57700002 1.8808676e-38
0.093275934 -0.11466519 0.57433331 1.8624635e-38
0.09629669 -0.10555676 0.57416409 1.8532801e-38
0.10033238 -0.1011481 0.57100004 1.85328e-38
0.098446667 -0.095888451 0.57600015 1.8532438e-38
0.10177817 -0.094249032 0.57185298 1.853244e-38
0.099666677 -0.089809529 0.57500005 1.8899064e-38
0.10373323 -0.08472158 0.57410151 1.8624997e-38
0.10677706 -0.075547799 0.57483822 1.8624994e-38
0.11074287 -0.071657151 0.57000005 1.8624642e-38
0.10901904 -0.066798642 0.57676196 1.8716832e-38
0.11207337 -0.063816287 0.57368177 1.8624997e-38
0.11508678 -0.054884702 0.57462323 1.8624635e-38
0.11735724 -0.045612492 0.57523078 1.8716827e-38
0.12114295 -0.042974669 0.57195014 1.8624635e-38
0.11898638 -0.037601028 0.57800007 1.8716834e-38
0.12266636 -0.034619562 0.57412499 1.8624635e-38
0.12546907 -0.024992842 0.57504535 1.8624275e-38
0.13028572 -0.020628573 0.57000005 1.8439873e-38
0.14874287 -0.020628573 0.57000005 1.3919762e-38
0.15598851 -0.023831677 0.57450002 1.4934652e-38
0.1606338 -0.028313812 0.57175004 1.6967994e-38
0.12785786 -0.016469097 0.57657498 1.8716828e-38
0.13374257 -0.013645943 0.57337993 1.53942e-38
0.14450689 -0.015018029 0.57348895 1.7334247e-38
0.15434285 -0.017246719 0.57736826 1.7333527e-38
0.13521375 -0.0095171444 0.57814294 1.4198515e-38
0.14250858 -0.0090783341 0.57775009 1.4565878e-38
-0.13074286 0.0098057147 0.57200003 9.2159532e-39
-0.12910858 0.0098057147 0.57200003 8.7553282e-39
-0.05171619 0.0089097153 0.57040006 7.7448323e-39
-0.045714926 0.0095961913 0.57033348 1.0785433e-38
-0.03535058 0.0089239096 0.57057899 1.1521922e-38
-0.12930143 0.012672143 0.57225001 8.387975e-39
-0.051411007 0.013681271 0.57427788 5.0700422e-39
-0.044715807 0.013660164 0.57473588 1.1152415e-38
-0.035323273 0.013661711 0.5740189 1.2074375e-38
-0.028559048 0.012642382 0.57300001 1.6311403e-38
0.048760954 -0.2309162 0.58850002 1.7889238e-38
0.050314285 -0.23032762 0.58700001 1.8072548e-38
-0.17189331 -0.22079495 0.58055556 9.9491715e-39
-0.16457617 -0.22295754 0.5841819 9.9491771e-39
-0.15580438 -0.22683898 0.5861702 9.9495358e-39
-0.14921334 -0.22942954 0.58900005 1.013393e-38
0.049349844 -0.22712067 0.58883339 1.7703772e-38
0.053045858 -0.22461995 0.58462512 1.7979991e-38
-0.18349937 -0.21259628 0.58427274 9.8562556e-39
-0.1756866 -0.21647954 0.58471847 9.857336e-39
-0.16821639 -0.21947983 0.58760005 9.948454e-39
0.055332206 -0.21511498 0.58503085 1.797963e-38
-0.20360383 -0.20134749 0.5847941 9.9488281e-39
-0.19510666 -0.20514913 0.58500034 9.7651431e-39
-0.18729599 -0.20871718 0.58632153 9.6729489e-39
0.057972174 -0.20541994 0.58536965 1.8071823e-38
0.061065614 -0.20310076 0.58055556 1.7979632e-38
-0.22176592 -0.19077611 0.58109093 9.9499057e-39
-0.21478887 -0.19399568 0.58410841 9.8576947e-39
-0.2074548 -0.19712533 0.58591485 9.9488169e-39
0.059419241 -0.19813983 0.58640009 1.8164739e-38
0.061965898 -0.19432637 0.58316278 1.8256219e-38
-0.23398186 -0.18229985 0.58380777 9.5814679e-39
-0.22528614 -0.18650906 0.58533329 9.8562654e-39
-0.21960619 -0.18946621 0.58600003 1.0041003e-38
0.064276956 -0.18477534 0.58438599 1.8439891e-38
-0.25387734 -0.17137983 0.58205563 9.5807533e-39
-0.24478842 -0.17447223 0.58389717 9.6725944e-39
-0.23722726 -0.17764711 0.58571428 9.6729419e-39
0.066844136 -0.17519887 0.58495009 1.8440966e-38
0.07060115 -0.17139658 0.58280009 1.8440251e-38
-0.27326611 -0.16112438 0.58128572 9.4881989e-39
-0.26467422 -0.16407569 0.58486068 9.5807603e-39
-0.25573084 -0.16757989 0.58642632 9.488915e-39
-0.24976 -0.16912 0.588 9.4888996e-39
0.06796857 -0.16564219 0.58782351 1.8440244e-38
0.071452498 -0.16470596 0.58415627 1.8440246e-38
-0.29273444 -0.1507113 0.58057141 9.8562654e-39
-0.28418878 -0.15309039 0.58301389 9.672593e-39
-0.27625406 -0.15725239 0.58482814 9.5803931e-39
-0.26868826 -0.15945779 0.58816671 9.5803791e-39
0.069085717 -0.15835886 0.58880001 1.8440253e-38
0.07335262 -0.15519376 0.58520836 1.8532444e-38
-0.32203937 -0.1409962 0.5813334 9.9481107e-39
-0.31684157 -0.14071925 0.58080006 9.5814693e-39
-0.30425254 -0.14265278 0.58382541 9.6733104e-39
-0.29533231 -0.14571789 0.58417797 9.6729573e-39
-0.28776178 -0.14830139 0.58592314 9.6729461e-39
0.076713316 -0.14502609 0.58483881 1.862428e-38
0.080740325 -0.14157145 0.58066672 1.8532807e-38
-0.33092192 -0.13103619 0.583 9.8562612e-39
-0.32440656 -0.13378929 0.58498722 9.6729531e-39
-0.31555861 -0.13590236 0.58500016 9.6729545e-39
-0.30760595 -0.13852881 0.58600008 9.7647732e-39
0.078776717 -0.13661556 0.58711112 1.8624281e-38
0.081855528 -0.13429074 0.58292514 1.8440607e-38
-0.32638574 -0.12911628 0.58810532 9.8566199e-39
-0.31974289 -0.12901905 0.58900005 9.7647942e-39
0.079610169 -0.12894541 0.58866668 1.8440246e-38
0.083725013 -0.12509592 0.58473217 1.8532443e-38
0.08714173 -0.11539938 0.58524597 1.8532083e-38
0.090590484 -0.11158097 0.58000004 1.8532436e-38
0.088684626 -0.10731521 0.58690482 1.8532445e-38
0.092338204 -0.10371076 0.58273166 1.8532084e-38
0.09478423 -0.094874837 0.58373022 1.8624275e-38
0.097218432 -0.085352711 0.58577591 1.8624634e-38
0.10074325 -0.082767814 0.58249998 1.8624996e-38
0.098351441 -0.076421194 0.58787501 1.8809024e-38
0.10254645 -0.074130885 0.58437777 1.8809025e-38
0.09984953 -0.069558099 0.58900005 1.9085615e-38
0.1053265 -0.065259673 0.58443755 1.8900864e-38
0.10752714 -0.055914134 0.58595926 1.8900862e-38
0.11118361 -0.053396445 0.58195657 1.8808665e-38
0.10965307 -0.046901498 0.58828574 1.8993414e-38
0.11282841 -0.044642754 0.58385193 1.8809387e-38
0.11578737 -0.034904409 0.58471441 1.8808665e-38
0.12041906 -0.030933335 0.58000004 1.8992339e-38
0.17383087 -0.030085716 0.58500004 1.4287842e-38
0.11834964 -0.025602102 0.58576936 1.8808662e-38
0.12133501 -0.024351388 0.58117402 1.8808306e-38
0.16573346 -0.024249569 0.5839411 1.5396341e-38
0.17237063 -0.026280997 0.58780956 1.4657688e-38
0.11922795 -0.018687621 0.58866668 1.8808668e-38
0.12364236 -0.01482098 0.58393759 1.8808664e-38
0.148709 -0.013507091 0.58022225 1.6964381e-38
0.15212087 -0.013672556 0.58063632 1.5582531e-38
0.16346724 -0.018705906 0.58460003 1.733353e-38
0.1267221 -0.0068169194 0.58565116 1.6316146e-38
0.13424119 -0.0061459634 0.58258682 1.3736827e-38
-0.051125716 0.018371431 0.58100003 7.8373572e-39
-0.045750689 0.018129103 0.5826667 1.1336446e-38
-0.038047627 0.01883979 0.58177781 1.354769e-38
-0.051141981 0.022903442 0.58761537 1.1155654e-38
-0.045606457 0.022151638 0.58630544 1.207329e-38
-0.039088763 0.021543238 0.583 1.5113916e-38
-0.14355308 -0.23098372 0.59431827 9.9495316e-39
-0.13780661 -0.23228519 0.5976001 1.013357e-38
0.044137623 -0.23216724 0.59592855 1.7334623e-38
-0.16180225 -0.22136039 0.59275007 9.9491785e-39
-0.15493858 -0.22395901 0.59450001 9.9491785e-39
-0.14655405 -0.22818412 0.59541041 9.9498987e-39
0.046395414 -0.22509797 0.59471434 1.7519373e-38
0.05057143 -0.22082858 0.59000003 1.7979628e-38
-0.18093334 -0.21015239 0.59000003 9.9488351e-39
-0.17384823 -0.21325821 0.59357154 9.7654991e-39
-0.16585223 -0.21686086 0.59552175 1.0041367e-38
-0.15926415 -0.21932065 0.59866667 9.7647774e-39
0.048194766 -0.21629947 0.59655559 1.770376e-38
0.051562328 -0.21327926 0.59281486 1.7979626e-38
-0.20116192 -0.20003812 0.59000003 9.9495316e-39
-0.19403926 -0.20195015 0.59337258 9.8576933e-39
-0.18541631 -0.20634082 0.59385926 9.7647774e-39
-0.17735559 -0.20907478 0.5968948 9.8566255e-39
0.048612617 -0.20799384 0.59875 1.7886719e-38
0.053062599 -0.20477957 0.59415793 1.8071826e-38
-0.2133255 -0.19103447 0.5925833 1.0040997e-38
-0.20447838 -0.1947659 0.59429497 1.004102e-38
-0.19728988 -0.19858383 0.59700006 9.9495288e-39
0.055814441 -0.19515653 0.59453517 1.8071826e-38
-0.23082829 -0.1807619 0.59066671 1.0132115e-38
-0.22381325 -0.18279588 0.59366125 9.7644285e-39
-0.21648648 -0.18662854 0.59580874 9.8569702e-39
-0.20993525 -0.18939811 0.59900004 9.9498861e-39
0.057725005 -0.18588887 0.59600019 1.8255852e-38
0.061287396 -0.18260212 0.59200007 1.8440963e-38
-0.24349745 -0.17178386 0.59316671 9.5807477e-39
-0.23459122 -0.17556137 0.59445727 9.4889234e-39
-0.22677904 -0.17898405 0.59686959 9.6729391e-39
0.058483694 -0.17716061 0.59837502 1.816366e-38
0.062154204 -0.17477296 0.59483725 1.844025e-38
-0.26221758 -0.16098033 0.59055561 9.5807645e-39
-0.25492302 -0.16349238 0.59397161 9.6718755e-39
-0.24698074 -0.16791117 0.59575003 9.6725691e-39
0.064234488 -0.16510922 0.59475005 1.8255857e-38
-0.28171492 -0.15100527 0.59200007 9.397455e-39
-0.27431601 -0.15368779 0.59376931 9.487836e-39
-0.26545429 -0.15726437 0.59471631 9.4881989e-39
-0.25614381 -0.15973334 0.59900004 9.9459443e-39
0.067162849 -0.15542468 0.59506536 1.8256219e-38
0.071021222 -0.15243089 0.59185719 1.8440253e-38
-0.2938959 -0.14206871 0.59424001 9.5807463e-39
-0.28522277 -0.146063 0.5950411 9.5807449e-39
-0.27814764 -0.14853488 0.59756249 9.6718783e-39
0.068536505 -0.14533082 0.59804171 1.8256577e-38
0.072113179 -0.14446712 0.59353489 1.834805e-38
-0.31335318 -0.13261203 0.59388244 9.4885562e-39
-0.30486959 -0.13616194 0.59508097 9.5811078e-39
-0.29732555 -0.13804486 0.59716666 9.4885506e-39
0.075074539 -0.13515267 0.594172 1.853208e-38
0.077335447 -0.12518233 0.59602094 1.8440246e-38
0.080954291 -0.12286033 0.59140003 1.8348405e-38
0.078920901 -0.11643675 0.59794122 1.853244e-38
0.082264468 -0.11439006 0.59293336 1.853244e-38
0.07986667 -0.10839048 0.5990001 1.8716828e-38
0.085012563 -0.10481116 0.59471428 1.8624637e-38
0.090057142 -0.10018858 0.59100002 1.8808308e-38
0.087539382 -0.095789857 0.59633338 1.8900861e-38
0.091249995 -0.093973011 0.59175003 1.8900503e-38
0.088912979 -0.087347031 0.59749997 1.9084535e-38
0.092466377 -0.084586918 0.59462225 1.8900865e-38
0.095098726 -0.074947134 0.59553444 1.8993417e-38
0.098243341 -0.065736897 0.59543753 1.8993415e-38
0.1013964 -0.06357263 0.59174073 1.8993055e-38
0.099262863 -0.057618096 0.59900004 1.9085252e-38
0.10291029 -0.054625776 0.59412742 1.8993056e-38
0.10621393 -0.045472361 0.59398377 1.8901218e-38
0.11019555 -0.041603811 0.59033334 1.8808665e-38
0.10775614 -0.036070719 0.59664106 1.8900861e-38
0.11156558 -0.033976089 0.59331048 1.8900859e-38
0.10920048 -0.028796667 0.59875005 1.8900865e-38
0.11381168 -0.0246325 0.5944615 1.8900861e-38
0.17658672 -0.024562262 0.59202701 1.6780356e-38
0.11672109 -0.014922202 0.59487927 1.8900858e-38
0.12097177 -0.012270304 0.59054554 1.8900499e-38
0.17480573 -0.019234287 0.59400004 1.6600282e-38
0.11843261 -0.0064407936 0.59691668 1.8808664e-38
0.12321606 -0.003934518 0.59253329 1.7147352e-38
0.13334736 -0.0019282994 0.5907858 1.5582529e-38
0.11970001 0.00057047623 0.59850001 1.8900499e-38
0.12545608 0.0023917588 0.59624499 1.4195294e-38
0.1327019 0.0024895973 0.59526914 1.5394543e-38
-0.13382986 -0.23190749 0.60351062 9.9495428e-39
-0.12674837 -0.23473509 0.60675669 1.0041738e-38
0.037345625 -0.23410383 0.60545164 1.7241705e-38
0.040377855 -0.23252906 0.60137504 1.7334257e-38
-0.15279612 -0.22167638 0.60331255 1.013248e-38
-0.14521486 -0.22525594 0.60507792 1.0041726e-38
-0.13768192 -0.2287052 0.6065653 1.0041375e-38
0.038257211 -0.22487442 0.6080001 1.7426094e-38
0.041823633 -0.22453339 0.60318935 1.7518291e-38
-0.17085715 -0.21085715 0.60000002 9.7651389e-39
-0.16405089 -0.21328378 0.60387105 9.9495162e-39
-0.15600306 -0.21705794 0.6059491 1.0041364e-38
0.039418414 -0.21796 0.60866672 1.7334257e-38
0.043790609 -0.21498948 0.60456145 1.7610842e-38
-0.19088192 -0.2007242 0.60080004 9.5814735e-39
-0.18427144 -0.20301236 0.60338247 9.8566255e-39
-0.17517331 -0.20640992 0.6041643 9.8569814e-39
-0.16883473 -0.20927896 0.60666668 9.8573402e-39
0.046345148 -0.20495456 0.60511768 1.7610849e-38
0.050592382 -0.20094047 0.60025001 1.7794889e-38
-0.20330535 -0.19191559 0.60387802 9.7651557e-39
-0.19508529 -0.19565672 0.6045922 9.8569744e-39
-0.18666132 -0.1982796 0.60747999 9.7651473e-39
0.048272751 -0.1959696 0.60670966 1.7518651e-38
0.051295325 -0.19424833 0.60150009 1.7795234e-38
-0.22052573 -0.18032573 0.60300004 9.5814749e-39
-0.21419382 -0.1837393 0.60444784 9.8573346e-39
-0.20706426 -0.18794575 0.60657495 9.8569772e-39
0.049644087 -0.18732275 0.60814285 1.7702329e-38
0.053013716 -0.1843985 0.6038236 1.7887072e-38
-0.24057144 -0.17028572 0.60000002 9.7637096e-39
-0.23412874 -0.17238614 0.60464805 9.5807603e-39
-0.22550382 -0.176367 0.60471892 9.581105e-39
-0.21821335 -0.17895049 0.6079092 9.4899996e-39
0.05548517 -0.1749247 0.60560733 1.7795235e-38
-0.25283059 -0.16151299 0.60188466 9.5803959e-39
-0.24443956 -0.16461167 0.60421252 9.6725874e-39
-0.23795001 -0.16903609 0.60681254 9.8566381e-39
0.058128573 -0.16551067 0.60554999 1.7886716e-38
0.061580751 -0.16359259 0.6010527 1.8071822e-38
-0.27149808 -0.15072636 0.60100007 9.4882017e-39
-0.26421452 -0.15320875 0.6030001 9.4881961e-39
-0.2562255 -0.15718012 0.60503596 9.5803889e-39
-0.24889337 -0.15914401 0.60720009 9.3956502e-39
0.058934286 -0.15786605 0.60866666 1.7978907e-38
0.062686644 -0.15455702 0.60445291 1.816294e-38
-0.29043812 -0.14092287 0.60150003 9.4881933e-39
-0.28429168 -0.14242162 0.60455561 9.5803889e-39
-0.27535135 -0.14658572 0.60483098 9.580033e-39
-0.26771879 -0.14854486 0.6069091 9.3960005e-39
0.065218925 -0.14537998 0.60511363 1.8255852e-38
-0.29466361 -0.1348971 0.60403806 9.4885534e-39
-0.28755832 -0.13855222 0.60686374 9.4885562e-39
0.067816809 -0.13575052 0.60475612 1.834805e-38
0.071560442 -0.13280192 0.60200006 1.8532081e-38
0.068521172 -0.12643726 0.60744452 1.8439888e-38
0.072423063 -0.12473153 0.60356534 1.8532797e-38
0.07542529 -0.11522427 0.6043334 1.8624638e-38
0.077603169 -0.10525581 0.60548776 1.8809025e-38
0.081090704 -0.10266257 0.60092306 1.871755e-38
0.079005331 -0.097860955 0.60729998 1.9084891e-38
0.082986139 -0.094472922 0.6030578 1.890158e-38
0.085414074 -0.084933609 0.60515636 1.8993417e-38
0.090285718 -0.080000006 0.60000002 1.9177092e-38
0.087781094 -0.075273313 0.60641468 1.9177806e-38
0.091257781 -0.073516652 0.60176188 1.8993778e-38
0.088900737 -0.067254819 0.60877782 1.9177448e-38
0.093457937 -0.064917527 0.60373545 1.9085612e-38
0.096226305 -0.055410497 0.60391539 1.9085251e-38
0.10057144 -0.051428571 0.60000002 1.8993422e-38
0.097991168 -0.04551487 0.60600001 1.9085251e-38
0.10204744 -0.043670893 0.60240626 1.8993055e-38
0.099313721 -0.036502481 0.60840005 1.9085248e-38
0.10337408 -0.034570862 0.60505557 1.8992696e-38
0.10700139 -0.0251876 0.60409087 1.8993415e-38
0.11085714 -0.021714285 0.60000002 1.9176363e-38
0.10793405 -0.015821878 0.6070857 1.8993415e-38
0.11207586 -0.014309858 0.60242504 1.8992695e-38
0.10846 -0.0092799999 0.60900003 1.9084529e-38
0.11431608 -0.0050768042 0.60483062 1.8993054e-38
0.11687572 0.0039874287 0.60538185 1.862427e-38
0.12368661 0.0072909249 0.60223538 1.3274056e-38
0.13179047 0.0081714299 0.60500002 1.7150219e-38
0.11948001 0.01044 0.60900003 8.281112e-39
0.12630494 0.010745109 0.60836375 1.5673997e-38
0.13209301 0.010767619 0.6056667 1.7148784e-38
-0.11177106 -0.24045411 0.61640006 1.0226107e-38
-0.10847239 -0.24170476 0.61900008 1.0317584e-38
0.028061772 -0.24148247 0.61757153 1.7150231e-38
0.031283811 -0.24062905 0.61400008 1.724277e-38
0.3062419 -0.24148805 0.61811113 3.5927639e-39
-0.13151048 -0.23043428 0.611 9.9484554e-39
-0.12431387 -0.23335937 0.61495006 1.0041381e-38
-0.11641194 -0.23719862 0.61524999 1.0225764e-38
0.028735466 -0.2363952 0.61800009 1.7149873e-38
0.032880202 -0.23473136 0.61436743 1.7334616e-38
0.3083759 -0.23584384 0.61714822 7.8294147e-39
0.31218478 -0.23194964 0.61744452 1.0961856e-38
-0.14304169 -0.22217403 0.61305887 9.8573416e-39
-0.13544746 -0.22624257 0.61515397 9.8576947e-39
-0.12758915 -0.2294343 0.61740005 1.0041743e-38
0.034229361 -0.22553495 0.61514622 1.7150228e-38
0.3080878 -0.22584872 0.61780769 1.2443153e-38
0.31420141 -0.22409767 0.61611611 1.253319e-38
0.32126921 -0.22080001 0.6133334 1.0959408e-38
-0.16256903 -0.21125011 0.61360008 9.8573416e-39
-0.15486994 -0.2141851 0.61456007 1.0133564e-38
-0.14681594 -0.21820071 0.61500007 9.857336e-39
0.037295163 -0.21539842 0.61516672 1.7242063e-38
0.0410849 -0.21257715 0.61128581 1.7334258e-38
0.315097 -0.21468538 0.61490482 1.2442428e-38
0.32206446 -0.21557458 0.61317873 1.3174242e-38
-0.18119431 -0.20100334 0.61175001 9.6736944e-39
-0.17442584 -0.20317511 0.61440015 9.8573332e-39
-0.1667356 -0.20730613 0.61538637 9.9488099e-39
0.038950078 -0.20662557 0.61673689 1.7426098e-38
0.04199297 -0.20403381 0.61342859 1.7426096e-38
0.315835 -0.20527104 0.61575007 1.1797067e-38
0.32164809 -0.2045524 0.61250025 1.2350243e-38
-0.19383934 -0.19242752 0.61414587 9.7654991e-39
-0.18505356 -0.1963978 0.61525923 9.7647844e-39
-0.17800163 -0.19852325 0.6170001 9.9491743e-39
0.044073958 -0.19474268 0.6148966 1.7426096e-38
0.29603794 -0.19385764 0.61541677 1.4750603e-38
0.30037335 -0.19184002 0.61600006 1.4933932e-38
0.31693479 -0.19675678 0.6178292 1.179599e-38
0.32203165 -0.19472931 0.61509621 1.1888899e-38
-0.21195206 -0.18125144 0.61300004 9.8573472e-39
-0.20503215 -0.18468346 0.61446482 9.7651375e-39
-0.19734783 -0.18836017 0.61673087 9.5814707e-39
0.046763975 -0.18515696 0.6157347 1.7609766e-38
0.05004381 -0.18213618 0.611 1.7701963e-38
0.31718451 -0.18561564 0.61871433 1.3829723e-38
0.32314375 -0.18487813 0.61748844 1.3920839e-38
-0.23062286 -0.17063715 0.61150002 9.8558982e-39
-0.22416209 -0.17335376 0.61427873 9.7651473e-39
-0.21657979 -0.17737222 0.61606818 9.8569744e-39
-0.20869143 -0.17921524 0.61900002 1.0775695e-38
0.048536092 -0.17567515 0.61775011 1.7610125e-38
0.051353779 -0.17432837 0.61330777 1.7518649e-38
0.32299921 -0.17777883 0.61691666 1.4474017e-38
-0.24301194 -0.16191667 0.61422861 9.5796785e-39
-0.23533842 -0.16597989 0.61418319 9.5803917e-39
-0.2281056 -0.16853036 0.6163125 9.4885618e-39
0.049493335 -0.16851239 0.61866671 1.7702323e-38
0.053373039 -0.16476087 0.61499995 1.7702323e-38
0.32457685 -0.16542204 0.61872739 1.3460227e-38
-0.26171941 -0.15127715 0.61250001 9.671521e-39
-0.25473431 -0.15428305 0.61506045 9.5807547e-39
-0.24711996 -0.15811476 0.61673331 9.5796827e-39
0.056556471 -0.15563034 0.61512756 1.7702683e-38
0.060518093 -0.15071332 0.611 1.7978905e-38
0.32600668 -0.15740286 0.61900002 1.2534311e-38
-0.28082097 -0.14099237 0.61175001 9.4878416e-39
-0.2746304 -0.14277309 0.6146 9.4878514e-39
-0.2650471 -0.14722346 0.61471742 9.3963648e-39
-0.25865251 -0.1488654 0.61755562 9.5803903e-39
0.058535047 -0.14540879 0.61634487 1.80711e-38
0.062023211 -0.14404663 0.61225933 1.81633e-38
0.059319738 -0.13846885 0.61757147 1.80711e-38
0.063482799 -0.13493615 0.61518002 1.8255853e-38
0.066562921 -0.12476599 0.61552781 1.8348051e-38
0.06840267 -0.11632191 0.61664003 1.8532441e-38
0.071572684 -0.1136203 0.61253858 1.8716471e-38
0.069541335 -0.1072579 0.61880004 1.8716474e-38
0.073008828 -0.10485395 0.61412007 1.8716828e-38
0.075838298 -0.094948933 0.61519355 1.8809025e-38
0.080302857 -0.09252286 0.611 1.9085251e-38
0.07830207 -0.085515082 0.61774188 1.8901218e-38
0.081595048 -0.083754949 0.61285007 1.8993775e-38
0.078915477 -0.078031667 0.618375 1.8901577e-38
0.082904443 -0.074901946 0.61557698 1.9085249e-38
0.08632683 -0.064944252 0.61523074 1.9177804e-38
0.090777144 -0.060518093 0.611 1.9177805e-38
0.088086031 -0.056480836 0.61728013 1.9177442e-38
0.092138618 -0.053712547 0.61341673 1.9177446e-38
0.089607619 -0.049520001 0.61900002 1.9178165e-38
0.093268685 -0.044775426 0.61523086 1.9085251e-38
0.096137688 -0.035503071 0.61570907 1.9177448e-38
0.10047556 -0.030646985 0.611 1.8902296e-38
0.098368235 -0.025818164 0.61717868 1.9177446e-38
0.10240458 -0.024539202 0.61359477 1.9085609e-38
0.10413975 -0.015258799 0.61510873 1.9177448e-38
0.10726082 -0.0054483721 0.61523265 1.9177085e-38
0.11113428 -0.0030573807 0.61175001 1.9177446e-38
