# .PCD v0.7 - Point Cloud Data file format
VERSION 0.7
FIELDS x y z rgb
SIZE 4 4 4 4
TYPE F F F F
COUNT 1 1 1 1
WIDTH 983
HEIGHT 1
VIEWPOINT 0 0 0 0 1 0 0
POINTS 983
DATA ascii
0.085598178 -0.14472893 0.62654543 1.7333901e-38
-0.37216356 -0.1387019 0.62775004 9.4889122e-39
-0.36902094 -0.13962922 0.62833333 9.1222961e-39
0.086696766 -0.1351617 0.62434888 1.7426094e-38
0.090460956 -0.13411207 0.62216669 1.742718e-38
-0.36565867 -0.12771694 0.62900001 9.3971019e-39
0.087772541 -0.12444343 0.62523532 1.7610486e-38
0.090956911 -0.12472893 0.62218755 1.7610129e-38
0.08821892 -0.11590981 0.62784624 1.7886712e-38
0.090896994 -0.11412048 0.62516671 1.7611201e-38
0.088383764 -0.10462476 0.62803853 1.788707e-38
0.090589933 -0.10489795 0.62228572 1.7886713e-38
0.088052213 -0.095217578 0.62642866 1.7887431e-38
0.090150483 -0.095196664 0.62275004 1.7978906e-38
0.088587232 -0.085576519 0.62728572 1.7886714e-38
0.090725012 -0.084285244 0.62212497 1.7978544e-38
0.088818453 -0.075701259 0.62568426 1.788671e-38
0.090711497 -0.074271113 0.62226671 1.7886712e-38
0.089096189 -0.066003971 0.62716663 1.7886712e-38
0.091284916 -0.064612694 0.62241662 1.7978905e-38
0.091936693 -0.055638917 0.62338102 1.788671e-38
0.092135072 -0.043684449 0.62416673 1.8162929e-38
0.09217523 -0.034646325 0.62560701 1.8162929e-38
0.092914395 -0.025092712 0.62473917 1.8255126e-38
0.093073539 -0.015139312 0.62472224 1.8346967e-38
0.093767487 -0.005112445 0.62423337 1.8255124e-38
0.093911268 0.0037626422 0.62490326 1.8254768e-38
0.095501497 0.01524348 0.62379313 1.8162211e-38
0.095808543 0.024459573 0.62499994 1.8439153e-38
0.09683945 0.035585307 0.62410718 1.8715379e-38
0.096496619 0.044431586 0.62520701 1.8899768e-38
0.30468571 0.077942856 0.62 1.5207617e-38
0.26748571 0.088571429 0.62 1.0965893e-38
0.27592272 0.086918414 0.62083334 1.0783676e-38
0.28617015 0.08890117 0.62600011 1.032342e-38
0.29533479 0.086493336 0.62587094 1.1061001e-38
0.30545643 0.084024601 0.62442559 1.6132834e-38
0.31418183 0.082932554 0.6231817 1.6040284e-38
0.23532902 0.097678915 0.62428576 1.5949148e-38
0.24536957 0.096385427 0.62355876 1.6131375e-38
0.25507787 0.094913982 0.62395841 1.2994567e-38
0.26415744 0.093580954 0.6265294 1.2072615e-38
0.27495646 0.09137895 0.62545002 1.0966259e-38
0.28582394 0.090889804 0.62785721 1.0139741e-38
0.29238936 0.091236956 0.6286 1.0324159e-38
0.167107 0.14494947 0.62522441 6.2602743e-39
0.16842364 0.1546925 0.62712502 6.2606302e-39
0.17073686 0.15688558 0.62215388 6.8137858e-39
0.16891885 0.16315448 0.62599999 4.328496e-39
0.17176411 0.16405906 0.62257695 6.1691464e-39
0.028891429 -0.24076191 0.63200003 9.9517064e-39
0.035930432 -0.241243 0.63176197 9.9509735e-39
0.045780573 -0.2432206 0.63385242 1.0226846e-38
0.054879103 -0.24439691 0.63485307 1.0134291e-38
0.064422086 -0.24496324 0.6353125 9.9495386e-39
0.075257175 -0.24605086 0.63528562 9.0279522e-39
0.080527626 -0.24422705 0.63100004 1.2726217e-38
0.31760365 -0.24503934 0.63731718 1.2349866e-38
0.0067941588 -0.23204477 0.63296664 9.9506218e-39
0.015314979 -0.23304467 0.6347577 1.022613e-38
0.024854222 -0.23473753 0.63501328 1.0042813e-38
0.034081351 -0.23696221 0.63641948 1.013537e-38
0.043851171 -0.23855138 0.63868177 1.0318318e-38
0.051120006 -0.23977716 0.63900006 1.022577e-38
0.07934691 -0.23622063 0.63599998 1.3647483e-38
0.081423134 -0.23341906 0.63309526 1.4013032e-38
0.31761208 -0.23480788 0.63738781 1.2441351e-38
-0.043268573 -0.22115049 0.63100004 1.0225045e-38
-0.033469804 -0.22190212 0.63270974 1.0133934e-38
-0.024507303 -0.2227843 0.63496506 9.9498931e-39
-0.015223406 -0.22423403 0.63471222 9.9498875e-39
-0.0055409214 -0.22658491 0.63433343 1.0041724e-38
0.0039785164 -0.22790547 0.63613969 1.0042089e-38
0.012980002 -0.22896573 0.6388334 9.9506204e-39
0.079828575 -0.22436668 0.63500005 1.3828655e-38
0.081980653 -0.22494885 0.63356256 1.4197436e-38
0.31799591 -0.22475566 0.63706249 1.3459144e-38
0.32117829 -0.22627191 0.63341677 1.3087092e-38
-0.080970809 -0.2108451 0.63133335 9.4899898e-39
-0.074376538 -0.21131271 0.63213646 9.857343e-39
-0.064460225 -0.21308534 0.632891 9.7658662e-39
-0.054808423 -0.21460414 0.63409865 9.8580548e-39
-0.045333862 -0.2162908 0.63506144 9.9499001e-39
-0.036209747 -0.21767576 0.63572103 1.0133568e-38
-0.026010718 -0.21919477 0.63887501 9.9498931e-39
0.079828575 -0.21505336 0.63500005 1.4288923e-38
0.081114672 -0.21491949 0.63246673 1.4658419e-38
-0.12109191 -0.20101859 0.63100004 9.5811064e-39
-0.11395348 -0.20164515 0.63189298 9.673316e-39
-0.10473577 -0.2022385 0.63297445 9.7651403e-39
-0.094954811 -0.20367345 0.63402969 9.7655033e-39
-0.084910437 -0.20535217 0.63517141 9.673665e-39
-0.075374842 -0.20699748 0.63573688 9.7655033e-39
-0.065500662 -0.20820993 0.63638467 9.8573388e-39
-0.059500001 -0.20946288 0.63750005 9.9502617e-39
0.079828575 -0.20642543 0.63500011 1.4751327e-38
0.081248 -0.20453696 0.63335007 1.5397791e-38
-0.15329552 -0.19103906 0.63192862 9.7647676e-39
-0.1444997 -0.19223426 0.63360018 9.8566185e-39
-0.13467862 -0.19404355 0.63411272 9.673309e-39
-0.12491187 -0.19645956 0.63455015 9.7651417e-39
-0.11539216 -0.19754983 0.63638008 9.6729447e-39
-0.10605308 -0.19944301 0.63735723 9.6740209e-39
0.078990474 -0.19808382 0.63800001 1.4840653e-38
0.082331546 -0.19462161 0.63328582 1.659634e-38
-0.20131907 -0.18028572 0.63100004 9.0290228e-39
-0.19526376 -0.18110412 0.63188231 9.4874927e-39
-0.18402986 -0.18165556 0.63335496 9.5803959e-39
-0.17450391 -0.1834407 0.63477588 9.5814749e-39
-0.16486865 -0.18599455 0.63339067 9.7647858e-39
-0.15540953 -0.18684886 0.63565576 9.7651431e-39
-0.14565429 -0.18850325 0.63745844 9.8573304e-39
-0.13723366 -0.18923748 0.63822222 9.6729671e-39
0.082636774 -0.18475036 0.63493341 1.6965121e-38
-0.22292808 -0.17114486 0.63223523 9.3048768e-39
-0.2145081 -0.17212644 0.63318616 9.6729517e-39
-0.2049242 -0.17426559 0.6348533 9.5803973e-39
-0.19542059 -0.17635007 0.63557351 9.5807463e-39
-0.18624508 -0.17822081 0.6376971 9.5803763e-39
-0.17796648 -0.17966819 0.63819999 9.5811064e-39
0.083358444 -0.17814547 0.63427269 1.7240986e-38
-0.26275307 -0.16112013 0.6322 9.6725916e-39
-0.25470555 -0.16293305 0.63300014 9.6725874e-39
-0.2451065 -0.16313043 0.63458323 9.6725986e-39
-0.23489437 -0.16449785 0.63498592 9.5807491e-39
-0.22549717 -0.16658543 0.63590473 9.6722286e-39
-0.2159529 -0.16804166 0.63706905 9.488545e-39
-0.20874003 -0.16918287 0.63900006 9.489645e-39
0.082093254 -0.16467375 0.63308001 1.7241704e-38
-0.30287811 -0.15053573 0.63225001 9.580047e-39
-0.29461157 -0.15116459 0.63286668 9.8566353e-39
-0.28465283 -0.15269038 0.63261551 9.6740335e-39
-0.27434617 -0.15355301 0.63395375 9.8569688e-39
-0.26516816 -0.15587747 0.63541901 9.7644229e-39
-0.25534675 -0.15774804 0.63740909 9.856257e-39
-0.24561276 -0.15885051 0.63874996 9.6722412e-39
-0.23916858 -0.15944573 0.63900006 9.5811148e-39
0.082948245 -0.15509966 0.63322729 1.7517572e-38
-0.36129078 -0.14041206 0.63366669 9.3981753e-39
-0.35609373 -0.14079657 0.63286668 9.3974536e-39
-0.34441054 -0.14244126 0.6311518 9.3055929e-39
-0.33482403 -0.14322309 0.63292849 9.5814707e-39
-0.32517651 -0.14358692 0.63358623 9.7651515e-39
-0.31427124 -0.1433109 0.6333794 9.7655047e-39
-0.30513269 -0.14519754 0.63541788 9.7647858e-39
-0.29544157 -0.14654312 0.63619041 9.9484722e-39
-0.28571975 -0.14799896 0.63702399 9.7647928e-39
-0.27785268 -0.14931621 0.63827276 9.8566199e-39
0.084096417 -0.14658053 0.63561547 1.7517566e-38
-0.37298313 -0.13393943 0.63302779 9.2134057e-39
-0.36483204 -0.13509333 0.63466668 9.4882115e-39
-0.35527089 -0.13748969 0.63683742 9.4892751e-39
-0.34480956 -0.13826735 0.63564104 9.4889234e-39
-0.33515817 -0.13866726 0.63737035 9.673309e-39
-0.32486001 -0.13838662 0.63804352 9.6729573e-39
-0.31593212 -0.13877431 0.6377002 9.3974382e-39
0.084159084 -0.13293764 0.6349259 1.7610119e-38
-0.37456876 -0.1279134 0.6345883 9.488545e-39
-0.36808336 -0.1289043 0.63100004 9.3048951e-39
0.085102953 -0.12655742 0.6358183 1.7610845e-38
0.085024171 -0.11446539 0.63369447 1.7794515e-38
0.085805565 -0.10584686 0.63379997 1.7978902e-38
0.086328007 -0.094816007 0.63480008 1.7795229e-38
0.087154984 -0.086277068 0.6347273 1.779451e-38
0.087322243 -0.073221743 0.63570595 1.7978544e-38
0.08802212 -0.065059133 0.636087 1.7886353e-38
0.09021429 -0.060743809 0.63150001 1.7978546e-38
0.08793743 -0.055140141 0.63525003 1.7702315e-38
0.09095633 -0.054028064 0.63220006 1.8070741e-38
0.08805453 -0.04521567 0.63522226 1.7887068e-38
0.091250345 -0.045878801 0.63210541 1.8071095e-38
0.088657916 -0.035660002 0.63563639 1.8162215e-38
0.090428576 -0.034966774 0.63300002 1.8162929e-38
0.089195967 -0.024877619 0.63712502 1.7794513e-38
0.090410717 -0.024709286 0.63287503 1.8162931e-38
0.08917024 -0.015164404 0.63693762 1.8162569e-38
0.090854608 -0.014269683 0.63316667 1.8254768e-38
0.089663349 -0.0054523814 0.63612503 1.8162573e-38
0.091399141 -0.0054262863 0.63305008 1.8163292e-38
0.089337446 0.0051305494 0.63646168 1.8438438e-38
0.091778353 0.0057446868 0.63368005 1.83466e-38
0.089927621 0.010937143 0.63800001 1.8531341e-38
0.092406251 0.015022686 0.63481826 1.8346238e-38
0.092676483 0.024788126 0.63482356 1.8623901e-38
0.093382031 0.034451474 0.63359535 1.889941e-38
0.30661207 0.088952065 0.63250005 1.6592004e-38
0.31563473 0.088365272 0.63447058 1.6223596e-38
0.26635498 0.096966684 0.63160014 1.4565483e-38
0.27465624 0.096577026 0.63397235 1.4471847e-38
0.28500715 0.095376104 0.63425726 1.3825396e-38
0.29494005 0.093850166 0.6342501 1.4935354e-38
0.30472285 0.092195891 0.63560009 1.6408702e-38
0.31347749 0.091452278 0.63733333 1.6039907e-38
0.1591326 0.13538174 0.63840002 4.3263465e-39
0.16214491 0.13514647 0.63407701 5.2479174e-39
0.15979287 0.14250858 0.63675004 3.1299683e-39
0.1624997 0.14478272 0.63300008 4.23522e-39
0.16475022 0.15396142 0.63164532 3.7756768e-39
0.31561267 -0.25351971 0.6438511 1.2258042e-38
0.056468766 -0.24063067 0.64029998 9.8577101e-39
0.066768192 -0.24147196 0.64141184 9.5818323e-39
0.074345425 -0.24252263 0.64260018 8.8428351e-39
0.3138659 -0.24432345 0.64413726 1.198037e-38
0.027120003 -0.23062192 0.64130002 1.0134276e-38
0.035773154 -0.23201698 0.64326835 1.0226847e-38
0.044919103 -0.23428443 0.64390624 1.031832e-38
0.054701637 -0.23702991 0.6445536 9.950612e-39
0.06420593 -0.23753597 0.64519995 9.9495372e-39
0.075652376 -0.23656985 0.6454131 1.0137905e-38
0.3138656 -0.2358883 0.64380956 1.3088171e-38
-0.012656429 -0.22097191 0.64050001 9.950612e-39
-0.0050960542 -0.2218435 0.64185727 1.0134283e-38
0.0051004994 -0.22345717 0.64371437 1.0134294e-38
0.015483413 -0.22550088 0.64449251 1.0133934e-38
0.024571907 -0.2275694 0.64560437 1.0410157e-38
0.032530475 -0.22924502 0.64750004 1.0134297e-38
0.043200001 -0.22957714 0.648 9.9502743e-39
0.077617288 -0.22442855 0.64471054 1.4105592e-38
0.30963811 -0.22125715 0.64000005 1.9166183e-38
0.31396505 -0.22550407 0.64090711 1.2904161e-38
-0.055236883 -0.21040905 0.64054543 9.7662263e-39
-0.044383895 -0.2116691 0.64190918 9.9491841e-39
-0.034458548 -0.21341306 0.64329839 1.0041374e-38
-0.025208743 -0.21505213 0.64452106 1.0042092e-38
-0.015576274 -0.21676084 0.64413571 1.0225768e-38
-0.0059004333 -0.21725406 0.64631814 1.0226477e-38
0.0024675459 -0.21869217 0.64753842 1.0502347e-38
0.07787744 -0.2158206 0.64550006 1.4013048e-38
0.080582857 -0.21611048 0.64100003 1.4473671e-38
0.30963811 -0.21942858 0.64000005 2.3142101e-38
0.31447649 -0.21639341 0.64415383 1.6497243e-38
-0.091500483 -0.20068952 0.64050007 9.8577045e-39
-0.084719256 -0.20104954 0.64099997 9.5818281e-39
-0.074313886 -0.2021434 0.64264297 9.8573402e-39
-0.064807631 -0.20439419 0.64430153 9.8573444e-39
-0.055118632 -0.20706628 0.64447075 1.0133926e-38
-0.045287419 -0.20789561 0.64594603 9.8577017e-39
-0.037423402 -0.20834045 0.64721429 1.0041729e-38
0.078647293 -0.20480497 0.64472741 1.4380757e-38
0.080520004 -0.20679002 0.64050007 1.475205e-38
-0.13139758 -0.1904566 0.64214295 9.4881849e-39
-0.12467446 -0.19168243 0.64154071 9.396732e-39
-0.11466646 -0.19267726 0.64281648 9.6729545e-39
-0.10493515 -0.19508827 0.64362347 9.7651501e-39
-0.095217034 -0.1968336 0.64417475 9.7654991e-39
-0.085122369 -0.197449 0.64559203 9.7655019e-39
-0.07554701 -0.19845654 0.64670378 9.7655047e-39
-0.068194285 -0.19964571 0.648 9.857343e-39
0.078439705 -0.19468208 0.646577 1.4748815e-38
0.081052624 -0.19419619 0.64475 1.5674735e-38
-0.17164762 -0.1807943 0.64025009 9.488566e-39
-0.16470627 -0.1815605 0.6415174 9.8573416e-39
-0.15444693 -0.18210028 0.64319062 9.857336e-39
-0.14500389 -0.18406329 0.64399999 9.673309e-39
-0.13517199 -0.1861151 0.64476687 9.6729545e-39
-0.12541567 -0.18690678 0.64600015 9.5811008e-39
-0.11569729 -0.18857856 0.64708692 9.6729545e-39
-0.10820428 -0.18912548 0.64737499 9.76479e-39
0.078705274 -0.18511619 0.64642322 1.5304155e-38
0.080614284 -0.18504788 0.64125001 1.6229343e-38
-0.20175239 -0.17066668 0.64000005 9.7647928e-39
-0.19370823 -0.17183968 0.64240623 9.4892779e-39
-0.18478633 -0.1737525 0.64434385 9.4885618e-39
-0.1753244 -0.17553796 0.64474994 9.4889178e-39
-0.16553523 -0.17709301 0.64493889 9.7651613e-39
-0.15696526 -0.17805353 0.6465416 9.8566185e-39
0.078236334 -0.1750913 0.64666671 1.5764413e-38
0.082146846 -0.17586388 0.64369577 1.6964754e-38
-0.23188975 -0.16110191 0.64074999 9.48785e-39
-0.22428612 -0.16195895 0.6427353 9.4874744e-39
-0.2147553 -0.16410258 0.64450002 9.5803959e-39
-0.20529035 -0.16751787 0.64375556 9.4881947e-39
-0.19568634 -0.16895698 0.64584619 9.6722244e-39
-0.18736456 -0.16885029 0.648 9.7647732e-39
0.079117909 -0.16771126 0.64600003 1.6411216e-38
0.080760278 -0.16458353 0.64521438 1.6780727e-38
-0.26353469 -0.15121701 0.64203858 9.9488113e-39
-0.25448224 -0.15278558 0.6438334 9.7647746e-39
-0.24496314 -0.15502898 0.64370686 9.764783e-39
-0.23526415 -0.15685223 0.64455003 9.5803903e-39
-0.22578569 -0.1581616 0.64657575 9.5800288e-39
-0.21754286 -0.15891428 0.648 9.5803763e-39
0.081688382 -0.15433578 0.64552003 1.7425373e-38
-0.31085715 -0.14019048 0.64000005 9.9488001e-39
-0.30497295 -0.14028783 0.64044452 9.7647942e-39
-0.29423153 -0.14175144 0.64174205 9.6725944e-39
-0.28455478 -0.14310691 0.64362293 9.7644313e-39
-0.2749238 -0.14566758 0.64401507 9.7647858e-39
-0.26576599 -0.14757977 0.64544457 9.9484512e-39
-0.2558057 -0.14919429 0.648 9.7644159e-39
0.078994282 -0.14441143 0.648 1.7426804e-38
0.0824164 -0.14441191 0.6455161 1.7426455e-38
-0.37166798 -0.13091081 0.64433336 9.3970963e-39
-0.36527908 -0.13171378 0.64211547 9.4889234e-39
-0.35409504 -0.13253111 0.64123416 9.4889178e-39
-0.34452406 -0.13323425 0.64240015 9.4892793e-39
-0.33494264 -0.13342391 0.64257157 9.5811148e-39
-0.32506084 -0.13360049 0.64334917 9.764783e-39
-0.31534484 -0.13532023 0.64501625 9.8569786e-39
-0.30532151 -0.1371834 0.64491504 9.7651431e-39
-0.29555264 -0.1379853 0.64586133 9.7651529e-39
-0.28652343 -0.1385587 0.64768749 1.013178e-38
0.082253069 -0.13826258 0.64728576 1.7518291e-38
-0.36423585 -0.12672013 0.64565235 9.3056041e-39
-0.3553398 -0.12818223 0.645037 9.5803917e-39
-0.3445397 -0.12736803 0.64636368 9.5814805e-39
-0.33521324 -0.12876995 0.64727777 9.6736692e-39
-0.32517073 -0.129575 0.64787501 9.673672e-39
-0.31968001 -0.1296 0.648 9.765869e-39
0.082719564 -0.12418357 0.64209092 1.7702679e-38
0.079703808 -0.11632572 0.64625001 1.7886352e-38
0.081953362 -0.11514368 0.64528006 1.7794517e-38
0.082485028 -0.10563774 0.64463633 1.7886713e-38
0.083998457 -0.094814338 0.64293617 1.7794516e-38
0.079980955 -0.089824766 0.64600003 1.8162217e-38
0.084263898 -0.084717318 0.64346951 1.7886347e-38
0.084878959 -0.076032005 0.64540005 1.7886347e-38
0.085165642 -0.065180555 0.64303583 1.807074e-38
0.085863523 -0.054517061 0.64400005 1.7794509e-38
0.086190231 -0.045873929 0.64643759 1.7794505e-38
0.086447462 -0.034204498 0.64324003 1.7886349e-38
0.086874574 -0.025540473 0.6450001 1.7885624e-38
0.086743273 -0.015068642 0.64344454 1.8162567e-38
0.088310406 -0.0055191275 0.64395833 1.8254761e-38
0.08825326 0.0043880744 0.64547837 1.8346963e-38
0.088499725 0.015457598 0.64604002 1.8622825e-38
0.090702862 0.016547939 0.64350003 1.8439518e-38
0.090632387 0.025105953 0.64300001 1.8807216e-38
0.3155064 0.096541576 0.64404768 1.6316855e-38
0.32290027 0.09487772 0.64332265 1.5298366e-38
0.16080382 0.12167239 0.64200008 4.4099381e-39
0.30885109 -0.26104763 0.65700001 1.1521176e-38
0.31065714 -0.26075238 0.65500003 1.1981075e-38
0.30913529 -0.25480396 0.6557501 1.1520822e-38
0.31192228 -0.25506213 0.65125829 1.1888882e-38
0.29892004 -0.24126668 0.65800005 1.290705e-38
0.30792692 -0.24387635 0.65659469 1.3827171e-38
0.31135353 -0.24561585 0.65211117 1.2072922e-38
0.038380954 -0.23028573 0.65000004 1.0594544e-38
0.046604332 -0.23088071 0.65009099 9.9502561e-39
0.055756886 -0.23262097 0.6529268 1.0042094e-38
0.065365493 -0.23307613 0.65307862 9.764797e-39
0.073368326 -0.23373596 0.65199995 8.3843765e-39
0.29892004 -0.23876002 0.65800005 1.3278361e-38
0.30622092 -0.2355842 0.65748101 1.4474024e-38
0.3119297 -0.23550887 0.65478384 1.4563325e-38
0.0089222863 -0.22107963 0.65060008 1.031832e-38
0.015753614 -0.22118995 0.65088236 1.0317962e-38
0.025933333 -0.22290902 0.65242231 1.022613e-38
0.035140827 -0.22500221 0.65372217 1.0317964e-38
0.045148615 -0.2268855 0.65437049 1.0226127e-38
0.054006912 -0.2275248 0.65674293 1.0133921e-38
0.064756125 -0.22861868 0.65707403 9.4892765e-39
0.07322485 -0.22716549 0.65356523 9.030476e-39
0.30758429 -0.22630283 0.65782613 1.3274373e-38
0.3118763 -0.22551535 0.65709084 1.4104174e-38
-0.032190479 -0.2104762 0.65000004 1.0041724e-38
-0.024641335 -0.21075618 0.65010005 1.0225768e-38
-0.015066243 -0.21194373 0.65166676 1.0225411e-38
-0.0053261039 -0.21226168 0.65279579 1.0134293e-38
0.0047941008 -0.21516104 0.65429193 1.0225775e-38
0.014909068 -0.21698511 0.65527797 1.013465e-38
0.024093641 -0.21792449 0.65680635 1.022577e-38
0.031008573 -0.21893668 0.65775001 1.0226488e-38
0.075011298 -0.21435834 0.65132153 1.4288903e-38
0.29846096 -0.21185048 0.65425003 2.1666688e-38
0.30470201 -0.21287277 0.65740001 1.8438774e-38
0.31409407 -0.21419081 0.65462512 1.4473292e-38
-0.06261225 -0.20092519 0.65000004 9.6729643e-39
-0.054734115 -0.20255414 0.65158981 1.0041352e-38
-0.045121115 -0.20298371 0.65367264 9.9491841e-39
-0.034963068 -0.20495242 0.6548807 1.0041734e-38
-0.025365097 -0.20695138 0.65537113 1.0225405e-38
-0.014795029 -0.20794907 0.65647233 1.0041363e-38
-0.0054790475 -0.20903073 0.65762502 1.0226473e-38
0 -0.20930669 0.65800005 1.0318324e-38
0.076126598 -0.20487295 0.65234613 1.410416e-38
0.29954669 -0.20805335 0.65800011 2.2683e-38
0.30205339 -0.20769528 0.65800011 1.9456188e-38
0.31903428 -0.20957905 0.653 1.8173686e-38
-0.10133829 -0.19127925 0.6504001 9.4885534e-39
-0.094727613 -0.19224116 0.65039295 9.7647788e-39
-0.084848173 -0.19257011 0.65166676 9.85698e-39
-0.074761912 -0.19366834 0.65333354 9.7651459e-39
-0.065190174 -0.19565727 0.65407151 9.7651487e-39
-0.055664215 -0.19764982 0.65607166 9.8577003e-39
-0.045441043 -0.19908297 0.6577273 1.004138e-38
0.075969718 -0.19537675 0.65440005 1.41038e-38
-0.14361906 -0.18076192 0.65000004 9.6733076e-39
-0.13428032 -0.18172289 0.65131021 9.673302e-39
-0.12425118 -0.18280928 0.65291125 9.4892737e-39
-0.11524616 -0.18442889 0.6537503 9.5807477e-39
-0.10480116 -0.18681626 0.65380412 9.6733034e-39
-0.095094077 -0.18792866 0.65445244 9.8576905e-39
-0.085037097 -0.18883748 0.65656006 9.8569744e-39
-0.076477945 -0.18916509 0.65733343 9.6726042e-39
0.075916834 -0.18621369 0.65547615 1.4472585e-38
-0.18138096 -0.17085715 0.65000004 9.5818295e-39
-0.17316572 -0.17122942 0.65112501 9.4892919e-39
-0.16486412 -0.1724066 0.65166688 9.8566227e-39
-0.15449999 -0.17412941 0.6532321 9.7651403e-39
-0.14489388 -0.17619479 0.65344644 9.7651487e-39
-0.13556057 -0.17712949 0.65565318 9.6729517e-39
-0.12591687 -0.17912568 0.65682364 9.5814651e-39
0.07673119 -0.17333452 0.65237504 1.5302715e-38
-0.21135557 -0.16202541 0.65016675 9.7636816e-39
-0.20466073 -0.16324857 0.65234643 9.3967165e-39
-0.19505009 -0.1640528 0.65380019 9.5807519e-39
-0.18520127 -0.16668206 0.65394139 9.6729503e-39
-0.17552172 -0.16812943 0.65507513 9.5807631e-39
-0.16559386 -0.16889109 0.65636367 9.5807617e-39
-0.15931429 -0.16993524 0.65600002 9.4892821e-39
0.077430621 -0.16465603 0.65382159 1.5765492e-38
0.080476195 -0.16095239 0.65000004 1.6871841e-38
-0.25009525 -0.15166667 0.65000004 9.6736706e-39
-0.24374524 -0.15119305 0.65094131 9.7644327e-39
-0.23458648 -0.15211855 0.65302527 9.7651403e-39
-0.2247638 -0.15359129 0.65393353 9.4881975e-39
-0.21511978 -0.15655117 0.6537168 9.7640599e-39
-0.20591983 -0.15827525 0.65653342 9.4889136e-39
-0.19733483 -0.15878689 0.65755558 9.396369e-39
0.078191504 -0.15519379 0.65242308 1.6595971e-38
0.080476195 -0.15352382 0.65000004 1.7241344e-38
-0.27432862 -0.14142479 0.65130436 9.9491785e-39
-0.26470608 -0.14289074 0.65326315 9.856973e-39
-0.25519985 -0.14521226 0.65380037 9.7655019e-39
-0.24532391 -0.14631636 0.65487087 9.7647886e-39
-0.2360741 -0.14794938 0.65699995 9.5807561e-39
-0.22729117 -0.14872381 0.65771431 9.4874814e-39
0.078406923 -0.14450781 0.65199995 1.705767e-38
0.080476195 -0.14584762 0.65000004 1.751721e-38
-0.31383595 -0.13138056 0.65070826 9.8569828e-39
-0.30452415 -0.13248192 0.65118927 9.7644299e-39
-0.29514554 -0.13329941 0.65303791 1.0040294e-38
-0.28489468 -0.13593046 0.65453589 9.9484582e-39
-0.27631196 -0.13811721 0.65605885 9.8573388e-39
-0.26580071 -0.13867103 0.65757149 9.8566241e-39
0.078738183 -0.13562427 0.6556499 1.7242061e-38
0.081586242 -0.13479854 0.65227789 1.7610486e-38
-0.32536101 -0.12511384 0.65333354 9.4896282e-39
-0.31546623 -0.126425 0.65396017 9.6729447e-39
-0.3056128 -0.12772931 0.65530777 9.5814665e-39
-0.29817957 -0.12889595 0.65700006 9.7647704e-39
0.079397894 -0.12469208 0.65244448 1.7518654e-38
0.081210695 -0.12558815 0.65130776 1.7611204e-38
0.078960009 -0.11656 0.65800005 1.7610482e-38
0.080487303 -0.11531206 0.65683341 1.7518291e-38
0.081195556 -0.10446936 0.65750003 1.7794873e-38
0.081924766 -0.096652701 0.65333337 1.7978906e-38
0.080967218 -0.08436095 0.65471435 1.7794871e-38
0.081661128 -0.075214028 0.65227276 1.7886343e-38
0.082986183 -0.064087041 0.65582615 1.7885987e-38
0.079847619 -0.054895241 0.65500003 1.7517202e-38
0.082801297 -0.055220395 0.6531471 1.7794508e-38
0.083497256 -0.045132045 0.65344119 1.7794152e-38
0.078840002 -0.030034285 0.65700001 1.8254408e-38
0.0833323 -0.035144597 0.65497148 1.7886345e-38
0.083358809 -0.025039703 0.65321887 1.797818e-38
0.08468423 -0.016321164 0.65383333 1.8070367e-38
0.085926771 -0.0055977493 0.65295458 1.8255116e-38
0.08592099 0.0050342153 0.65448153 1.8347317e-38
0.27206001 -0.26505142 0.66900003 9.9509875e-39
0.3059395 -0.26274946 0.66485184 1.0874736e-38
0.30590004 -0.25505325 0.66445893 1.1334641e-38
0.30551195 -0.24669565 0.66354072 1.3918659e-38
0.30632573 -0.23638694 0.66771436 1.3916815e-38
0.036994666 -0.22095466 0.66060001 1.0318683e-38
0.045100436 -0.22216435 0.66157585 1.0134653e-38
0.055521667 -0.22307716 0.66463643 1.0133933e-38
0.065009311 -0.22425053 0.66482264 9.4892779e-39
0.072113663 -0.22444907 0.66420829 8.8428253e-39
0.30849716 -0.22277969 0.66016674 1.3274369e-38
0.31173906 -0.22159277 0.66100007 1.3642435e-38
0.0063958978 -0.21132733 0.66130781 1.0317971e-38
0.014933652 -0.21198793 0.66247225 1.0226481e-38
0.024813103 -0.21355446 0.66468424 1.0410157e-38
0.034784727 -0.21604304 0.66504908 1.0226484e-38
0.044517126 -0.21813932 0.66616225 1.0409812e-38
0.052207142 -0.21901239 0.66850007 1.0317967e-38
0.072587304 -0.2127126 0.66472226 1.3093589e-38
0.30725357 -0.21354228 0.66152632 1.8161104e-38
0.31443077 -0.21229145 0.66388458 1.5580002e-38
0.32202861 -0.21089718 0.66300005 1.4754944e-38
-0.032697383 -0.20090431 0.66025007 1.0041737e-38
-0.024044313 -0.20189014 0.66257912 1.013393e-38
-0.014522895 -0.20306003 0.66301864 1.0042449e-38
-0.0052485401 -0.20489876 0.66413343 1.0317957e-38
0.0042019496 -0.20741118 0.6645456 1.0225767e-38
0.01402235 -0.20820649 0.66706681 1.0317954e-38
0.022736056 -0.20916738 0.66842866 1.0410522e-38
0.069771431 -0.20445399 0.66600001 1.3277611e-38
0.072908513 -0.2048628 0.66367662 1.4196349e-38
0.30725452 -0.20725085 0.66143751 1.6319399e-38
0.316504 -0.20878606 0.66533339 1.6503402e-38
-0.0704 -0.19108573 0.66000003 9.8573444e-39
-0.063184768 -0.19143912 0.66049993 9.9495386e-39
-0.05443272 -0.19278625 0.6627599 9.9488197e-39
-0.045031231 -0.19543865 0.66370702 1.0133212e-38
-0.035089847 -0.19687133 0.66445768 1.0041736e-38
-0.025299225 -0.19785723 0.66828114 1.0225404e-38
-0.014943931 -0.19841452 0.66830426 1.0317969e-38
-0.0084787309 -0.1992394 0.66766679 1.0226844e-38
0.073953204 -0.19588408 0.66614294 1.4103444e-38
-0.11232668 -0.18175781 0.66075009 9.7644201e-39
-0.10471673 -0.18230967 0.66197443 9.8569716e-39
-0.095073655 -0.18310146 0.66183329 9.8573332e-39
-0.084814087 -0.18379156 0.66327274 9.7651375e-39
-0.075008765 -0.18590587 0.66439998 9.9484526e-39
-0.065958314 -0.18772951 0.66595364 9.9491715e-39
-0.056471363 -0.18899697 0.66800004 1.0133193e-38
0.074738845 -0.18428953 0.66389471 1.4196357e-38
-0.15058923 -0.17114288 0.6606667 9.5807631e-39
-0.14471853 -0.17143273 0.66068184 9.5811134e-39
-0.13434963 -0.17248636 0.66281396 9.7647788e-39
-0.12528585 -0.17463696 0.66367191 9.5807505e-39
-0.1151534 -0.17623502 0.6638124 9.7647788e-39
-0.10567231 -0.177311 0.6663723 9.6729475e-39
-0.094281629 -0.17839403 0.66715384 9.8566199e-39
-0.087217316 -0.17899667 0.66766667 9.5818295e-39
0.075715728 -0.17587595 0.66519046 1.4656615e-38
-0.19060096 -0.16103619 0.66050005 9.6729335e-39
-0.1844077 -0.1624378 0.66148728 9.4885562e-39
-0.17471527 -0.16293254 0.66262746 9.5803959e-39
-0.16498271 -0.16401795 0.66381425 9.5807477e-39
-0.15529288 -0.1660255 0.66443068 9.7647886e-39
-0.14545436 -0.16723704 0.66517395 9.7647844e-39
-0.13666922 -0.16912447 0.66726685 9.6725916e-39
0.075066671 -0.16416682 0.66600001 1.5026486e-38
-0.22094287 -0.15117143 0.66000003 1.013031e-38
-0.21423157 -0.15192641 0.6618486 9.5804001e-39
-0.20466764 -0.1538363 0.66420633 9.5803945e-39
-0.19496506 -0.15545461 0.66532302 9.5807449e-39
-0.18557784 -0.1574434 0.66592324 9.4885562e-39
-0.17647704 -0.15911643 0.66711122 9.3967123e-39
-0.16756858 -0.15928572 0.66900003 9.3052454e-39
0.075631715 -0.15466593 0.66578579 1.5581464e-38
-0.25409639 -0.14126249 0.66040009 9.5825343e-39
-0.24422498 -0.14167571 0.66184616 9.7651277e-39
-0.23482317 -0.14356953 0.66393107 9.5811148e-39
-0.225466 -0.14623564 0.66442311 9.580033e-39
-0.21608156 -0.14849041 0.66450006 9.4881989e-39
-0.2065835 -0.14945801 0.66811121 9.4882031e-39
0.076838098 -0.14589702 0.66699994 1.6319383e-38
-0.29226941 -0.13139483 0.66057146 9.9488267e-39
-0.28412485 -0.13167062 0.66126931 9.8573332e-39
-0.27442688 -0.13354801 0.66293353 9.8569758e-39
-0.26476771 -0.13516177 0.66431576 9.764783e-39
-0.25558534 -0.13690765 0.66523635 9.7647914e-39
-0.2463562 -0.13818648 0.66650015 9.6725916e-39
-0.2383924 -0.1394324 0.66750002 9.4892667e-39
0.077370919 -0.13372807 0.66690916 1.6872919e-38
-0.28539532 -0.12725866 0.66606683 9.6725944e-39
-0.27574322 -0.12869686 0.66771412 9.6729391e-39
0.077640817 -0.12551293 0.66719037 1.7149145e-38
0.080040008 -0.12768286 0.66700006 1.7334257e-38
0.077275045 -0.11439842 0.66512507 1.7333897e-38
0.080487624 -0.11318476 0.66025001 1.7610485e-38
0.077652864 -0.1047208 0.66348273 1.7518645e-38
0.080457143 -0.10245715 0.66000003 1.7702681e-38
0.077433489 -0.095255621 0.6659252 1.7610484e-38
0.081033252 -0.095470309 0.6619091 1.7886709e-38
0.078648366 -0.086106353 0.66422218 1.7794873e-38
0.080893338 -0.085294291 0.66100001 1.788671e-38
0.078678444 -0.074644767 0.66577274 1.7794517e-38
0.081407376 -0.074184515 0.66160011 1.7886345e-38
0.078768924 -0.064987622 0.66604549 1.7610121e-38
0.08096762 -0.065654606 0.66075003 1.7793794e-38
0.078550167 -0.058914926 0.66516674 1.7425369e-38
0.080457143 -0.058457144 0.66000003 1.7610116e-38
0.079660006 -0.043618735 0.66383338 1.7794142e-38
0.081194803 -0.043173857 0.6613636 1.7794143e-38
0.079283819 -0.035192825 0.66723084 1.8070732e-38
0.081020765 -0.035007432 0.66360009 1.8070377e-38
0.079296328 -0.027215512 0.66685712 1.834732e-38
0.081222475 -0.023920381 0.66560006 1.816257e-38
0.082680278 -0.014132087 0.66396552 1.8162569e-38
0.082680523 -0.0049137608 0.66186202 1.8438787e-38
0.26580241 -0.26223472 0.67062497 1.004424e-38
0.27544245 -0.26277658 0.67149997 9.7673039e-39
0.28513113 -0.26323104 0.67436177 9.7665921e-39
0.29497144 -0.26473704 0.67755568 8.5698383e-39
0.3025848 -0.26495093 0.67618364 8.5698411e-39
0.26469857 -0.25663245 0.67484623 1.0874012e-38
0.27457094 -0.25734583 0.67734689 1.0781817e-38
0.28476426 -0.2576496 0.6789335 1.0503798e-38
0.29681379 -0.25569919 0.67845458 1.0229728e-38
0.30186659 -0.25508839 0.67439473 1.0874745e-38
0.29876 -0.24961334 0.67900002 1.1524116e-38
0.30359715 -0.24507713 0.67559993 1.4378555e-38
0.28859735 -0.23093028 0.67580003 2.1947585e-38
0.29404369 -0.23193443 0.67728585 1.7329527e-38
0.30632973 -0.23860498 0.6735 1.6777447e-38
0.067957148 -0.2211 0.67000002 8.9361013e-39
0.072530158 -0.22120635 0.67000002 9.4947121e-39
0.28725868 -0.22774947 0.67518193 1.9827481e-38
0.29516318 -0.22915681 0.67800003 2.0189793e-38
0.30222312 -0.22330683 0.67518193 1.8895452e-38
0.028926983 -0.21099684 0.67000002 9.9513337e-39
0.03600926 -0.21160577 0.6718182 1.0226125e-38
0.045486148 -0.21339592 0.67306232 1.022613e-38
0.0551036 -0.21468693 0.67460877 1.0041734e-38
0.065035358 -0.21622996 0.67458463 9.2119665e-39
0.071456462 -0.21701635 0.6716429 9.6762293e-39
0.29957142 -0.21921429 0.67500001 1.4206098e-38
0.30314288 -0.2192857 0.67500007 1.6409449e-38
-0.0020078912 -0.20193854 0.67100006 1.0410508e-38
0.0046644658 -0.20266952 0.67202246 1.0317967e-38
0.015120102 -0.2032858 0.67337489 1.0318683e-38
0.025094107 -0.2050892 0.67482626 1.031832e-38
0.034441624 -0.20705955 0.67602128 1.0226486e-38
0.043198735 -0.20881368 0.67811108 1.0409443e-38
0.052595563 -0.20930445 0.67900002 1.0133571e-38
0.069531433 -0.20086859 0.67600006 1.4107389e-38
0.071185149 -0.20251735 0.67460006 1.4381816e-38
-0.044621713 -0.19132259 0.67030001 9.949533e-39
-0.03480706 -0.1918294 0.67247045 1.0132478e-38
-0.02459535 -0.192957 0.67417306 1.0317592e-38
-0.014647973 -0.194396 0.67525929 1.0226124e-38
-0.0054319538 -0.19644368 0.67510223 1.0317965e-38
0.0044386289 -0.19845249 0.67707998 1.0226123e-38
0.012375081 -0.19896142 0.67791671 1.0410511e-38
0.06901183 -0.19508803 0.67680013 1.4380737e-38
0.071697913 -0.19467115 0.67460001 1.4103804e-38
-0.073695332 -0.18155849 0.67054999 9.9491813e-39
-0.064171098 -0.18304808 0.67325532 1.0040652e-38
-0.054720238 -0.18462718 0.67438459 1.0041014e-38
-0.045347482 -0.18629505 0.6745556 1.0133211e-38
-0.035854544 -0.18752654 0.67672747 1.0225404e-38
-0.027020089 -0.18902703 0.67845458 1.0317958e-38
0.069428578 -0.18514858 0.67500007 1.4104517e-38
0.072299451 -0.18398766 0.67152631 1.410452e-38
-0.122348 -0.17118667 0.67119998 9.4885674e-39
-0.11503556 -0.17159262 0.67229152 9.5807561e-39
-0.10426164 -0.17269689 0.67238444 9.7651487e-39
-0.094991751 -0.17352854 0.67362505 9.8569758e-39
-0.084800094 -0.17516056 0.67422575 9.7655075e-39
-0.075663872 -0.17733839 0.67457765 1.0132849e-38
-0.06539759 -0.17811048 0.67684633 1.0040658e-38
-0.056888297 -0.17870042 0.67878568 9.9498889e-39
0.069582857 -0.17846 0.67650002 1.4196719e-38
0.0726019 -0.17496209 0.67254847 1.4288556e-38
-0.1748381 -0.1608 0.67000002 9.6729433e-39
-0.15385199 -0.16097061 0.67071432 9.581112e-39
-0.14464743 -0.16256362 0.67190254 9.5803875e-39
-0.13482055 -0.16439518 0.67356521 9.5807477e-39
-0.12527454 -0.16593978 0.67506152 9.6729405e-39
-0.1155422 -0.167254 0.67633331 9.8562598e-39
-0.10592374 -0.16874538 0.67751998 9.6733034e-39
-0.095724009 -0.16922592 0.67819995 9.7651445e-39
0.069840007 -0.16296001 0.67900002 1.428819e-38
0.072671235 -0.16507517 0.6744644 1.4473307e-38
-0.1927063 -0.15133356 0.67225003 9.6718657e-39
-0.18446007 -0.15298101 0.67293328 9.5803875e-39
-0.17515823 -0.15457058 0.67341173 9.5803861e-39
-0.16512699 -0.15569618 0.67444438 9.7647886e-39
-0.15525879 -0.1570663 0.67491817 9.5814791e-39
-0.14543305 -0.15848747 0.67647827 9.6729531e-39
-0.13850428 -0.15916762 0.67799997 9.6722384e-39
0.069839999 -0.15778667 0.67900008 1.4381459e-38
0.072507121 -0.1555661 0.67607701 1.4750258e-38
-0.23226666 -0.14038095 0.67000002 9.5811204e-39
-0.22392197 -0.14259155 0.67241663 9.3967123e-39
-0.21489713 -0.14419205 0.67353845 9.3045293e-39
-0.20502302 -0.14531377 0.674631 9.5803889e-39
-0.19532554 -0.14760193 0.67632562 9.3045209e-39
-0.18578939 -0.14880823 0.67810529 9.2123393e-39
-0.17546162 -0.14965843 0.67733335 9.4885562e-39
0.069839999 -0.14226668 0.67900002 1.4934651e-38
0.073242836 -0.14458971 0.6746757 1.5304155e-38
-0.26466796 -0.13084486 0.67040002 9.9477379e-39
-0.25488564 -0.13194448 0.67294121 9.5804001e-39
-0.2446759 -0.13356546 0.67408335 9.4885604e-39
-0.2347924 -0.136158 0.67474151 9.7644229e-39
-0.22584407 -0.13808396 0.67690003 9.4889178e-39
-0.2176443 -0.13911785 0.67862499 9.3967151e-39
0.07376352 -0.13509843 0.67288893 1.5949523e-38
0.075271778 -0.1256142 0.67295456 1.6871478e-38
0.080399998 -0.12442857 0.67000002 1.7610481e-38
0.075460956 -0.11927047 0.67150003 1.6964755e-38
0.074590228 -0.10505433 0.67621744 1.7149504e-38
0.074471109 -0.09448953 0.67799997 1.72417e-38
0.076538503 -0.084721975 0.67522579 1.7518285e-38
0.076386996 -0.075107008 0.673706 1.7517566e-38
0.076193824 -0.064499252 0.67460001 1.7425366e-38
0.07657741 -0.05432836 0.67365795 1.7425362e-38
0.080932692 -0.053670477 0.6708889 1.7517561e-38
0.077255197 -0.045395754 0.67379981 1.770159e-38
0.081159048 -0.049206667 0.671 1.7610114e-38
0.078029402 -0.035907023 0.6764375 1.8070726e-38
0.080068573 -0.030994287 0.67800003 1.8254766e-38
0.078352816 -0.023975134 0.67622226 1.8347673e-38
0.080399998 -0.021057144 0.67000002 1.8255123e-38
0.080399998 -0.014676191 0.67000002 1.825512e-38
0.29844761 -0.26085809 0.68050003 8.0145052e-39
0.30049524 -0.26034287 0.68000001 8.4754945e-39
0.26479852 -0.2523998 0.6844573 1.3366945e-38
0.27464283 -0.25260577 0.68443346 1.2353505e-38
0.28421223 -0.25534695 0.68000001 1.2537141e-38
0.29470363 -0.25580046 0.68016684 1.0598881e-38
0.30330288 -0.25129589 0.68833339 1.2162997e-38
0.26497164 -0.24763022 0.68737835 1.4654807e-38
0.27449486 -0.24670421 0.68706995 1.2811961e-38
0.29706943 -0.2437993 0.68724257 1.3462046e-38
0.30195302 -0.24449469 0.68321878 1.797922e-38
0.2952494 -0.23776832 0.68478572 1.5484159e-38
0.30258077 -0.23845945 0.68150002 1.4109953e-38
0.2963421 -0.22508967 0.68481046 1.4565877e-38
0.30112094 -0.22413887 0.68305558 1.4844264e-38
0.059580952 -0.21112381 0.68000001 9.5811316e-39
0.06505923 -0.21149215 0.68119061 8.843554e-39
0.29879048 -0.21902621 0.68650007 1.4654765e-38
0.30053335 -0.21886668 0.68600005 1.5120463e-38
0.026273701 -0.20058435 0.68176931 1.0410154e-38
0.035855953 -0.20240064 0.68446875 1.0134283e-38
0.045052387 -0.20517565 0.68489283 1.0226125e-38
0.05486989 -0.20715904 0.68435717 9.8580632e-39
0.066014543 -0.20699075 0.68548775 9.3981739e-39
0.070380002 -0.20657477 0.68425006 1.2269244e-38
-0.01465143 -0.19088306 0.68080008 1.0225737e-38
-0.0040650941 -0.19211166 0.682087 1.0134652e-38
0.0046802904 -0.19359796 0.68357617 1.0317954e-38
0.015312766 -0.19511928 0.68503124 1.0226118e-38
0.024487816 -0.19716239 0.68587178 1.0318324e-38
0.03356608 -0.19844934 0.68780965 1.0317601e-38
0.068243809 -0.19882572 0.68900001 1.2547266e-38
-0.050946034 -0.18046984 0.68000001 1.0224326e-38
-0.043996952 -0.18207124 0.68180007 9.8577087e-39
-0.034277234 -0.18289202 0.6834287 1.0133934e-38
-0.025105864 -0.18495132 0.68366641 1.013357e-38
-0.015188352 -0.18633772 0.68549991 1.0317244e-38
-0.0055849352 -0.18794785 0.68654561 1.0134289e-38
0.0014204762 -0.18831587 0.6881668 1.0317948e-38
0.068355024 -0.18402638 0.68707705 1.4105238e-38
0.070148572 -0.18056762 0.68200004 1.4196364e-38
-0.083703369 -0.17095645 0.68166667 9.7647956e-39
-0.074371971 -0.17273526 0.68281591 9.9488211e-39
-0.065115191 -0.17362595 0.68452841 9.949533e-39
-0.055260081 -0.17612946 0.68456757 1.0041371e-38
-0.045420501 -0.17811035 0.68594128 1.004102e-38
-0.037072763 -0.17948116 0.68780011 9.8577241e-39
0.068795465 -0.17590216 0.68446153 1.419672e-38
0.07070972 -0.17378363 0.68240011 1.4380028e-38
-0.13297778 -0.16060953 0.68000001 9.6718587e-39
-0.12391283 -0.16099885 0.68038464 9.6729461e-39
-0.11464743 -0.16256626 0.68279487 9.7655033e-39
-0.10474265 -0.1639044 0.68396378 9.7647774e-39
-0.094751172 -0.16527955 0.68318528 9.7647858e-39
-0.085220776 -0.1660656 0.68542606 9.8566213e-39
-0.075878695 -0.16748889 0.6865145 9.9491715e-39
0.068303376 -0.16481131 0.68346673 1.4380025e-38
0.070581593 -0.16844319 0.68200004 1.4288543e-38
-0.17226666 -0.15024762 0.68000001 9.3967081e-39
-0.16434166 -0.15114 0.68037504 9.4892751e-39
-0.1544207 -0.15239158 0.68199992 9.7651529e-39
-0.14487927 -0.15411423 0.6839999 9.4892807e-39
-0.13480487 -0.15623617 0.68400007 9.5811176e-39
-0.12536818 -0.15728667 0.68562216 9.5803959e-39
-0.1157481 -0.15854305 0.68705004 9.5807421e-39
-0.10715006 -0.15926901 0.68788898 9.8569828e-39
0.069041222 -0.15407999 0.68390912 1.4289266e-38
0.070472382 -0.15458715 0.68200004 1.4382183e-38
-0.21044573 -0.14029714 0.68200004 9.8562724e-39
-0.20376834 -0.14109452 0.68193752 9.6725874e-39
-0.19468573 -0.14232665 0.68370467 9.3963508e-39
-0.18480927 -0.14431721 0.68412071 9.3041608e-39
-0.17511392 -0.14589311 0.68456137 9.5807547e-39
-0.16482671 -0.14735243 0.6850732 9.6725818e-39
-0.1560109 -0.14860234 0.68612516 9.6725888e-39
-0.14961143 -0.14961143 0.68900001 9.673302e-39
0.068827905 -0.14551382 0.68180007 1.4473667e-38
0.070148572 -0.14029714 0.68200004 1.4841741e-38
-0.22475873 -0.13333686 0.68334049 9.3967137e-39
-0.2149967 -0.13539016 0.68403167 9.4892597e-39
-0.20540953 -0.13746667 0.68629736 9.580033e-39
-0.19661577 -0.13862032 0.68786675 9.4882017e-39
0.069334105 -0.13500382 0.68680006 1.4843171e-38
0.071289808 -0.13451628 0.68300003 1.5211598e-38
0.069354288 -0.12954858 0.68700004 1.5027558e-38
0.07205116 -0.12464298 0.68292868 1.5857327e-38
0.072627343 -0.11637447 0.68436003 1.6319023e-38
0.07186953 -0.10381185 0.68250006 1.659561e-38
0.072368994 -0.095626399 0.68371445 1.6872549e-38
0.073053241 -0.084107362 0.68268186 1.7056947e-38
0.073419295 -0.074942358 0.68346667 1.714878e-38
0.073582709 -0.065473728 0.68400007 1.724097e-38
0.074149519 -0.059057143 0.68900001 1.7240984e-38
0.074695393 -0.043684922 0.68300003 1.8070736e-38
0.075332068 -0.034597065 0.68437505 1.8346601e-38
0.2859433 -0.25132215 0.6912353 1.1798892e-38
0.29244787 -0.25123191 0.69237506 1.0878734e-38
0.30195716 -0.25201431 0.69000006 1.2529986e-38
0.2654959 -0.24276237 0.6912356 1.5213038e-38
0.27440363 -0.24255189 0.69404352 1.5031158e-38
0.28610778 -0.24749462 0.69350004 1.4009427e-38
0.29366103 -0.24743307 0.69347996 1.2535764e-38
0.27204287 -0.23894766 0.69500011 1.3001045e-38
0.29440004 -0.22080001 0.69000006 1.1984728e-38
0.047229018 -0.20125364 0.69023091 9.8584304e-39
0.055774596 -0.20258443 0.69118202 9.8576947e-39
0.063714065 -0.20371863 0.69194305 8.7502807e-39
0.0092000002 -0.19057144 0.69000006 1.0776743e-38
0.015114288 -0.19057144 0.69000006 1.0410511e-38
0.02549859 -0.19245896 0.69236374 1.0501994e-38
0.035147566 -0.19415022 0.69360387 1.0226116e-38
0.044650551 -0.19623658 0.69451934 1.031796e-38
0.054452274 -0.19784227 0.69573539 9.9495386e-39
0.064835608 -0.19700648 0.69472736 9.9538784e-39
-0.030885717 -0.18005715 0.69000006 1.031868e-38
-0.024437144 -0.18071382 0.69041675 1.0133577e-38
-0.014442733 -0.18141268 0.69213045 1.050091e-38
-0.0051845289 -0.18284152 0.69341475 1.0410161e-38
0.0046623717 -0.18524665 0.69364733 1.0317601e-38
0.014910908 -0.18744725 0.69450009 1.0410161e-38
0.024719106 -0.18853068 0.69588256 1.059383e-38
0.030557144 -0.18932095 0.69749999 1.0043521e-38
0.06569393 -0.18345135 0.69421059 1.4382181e-38
-0.061771434 -0.17085716 0.69000006 1.0134261e-38
-0.053585924 -0.17246594 0.69100022 9.9495372e-39
-0.044633288 -0.17323177 0.69247746 1.004138e-38
-0.035149127 -0.1745166 0.69333857 1.0041374e-38
-0.025153425 -0.17675261 0.69511914 1.0225404e-38
-0.015868939 -0.1778976 0.69616133 1.0317599e-38
-0.0060394807 -0.17890875 0.69763643 1.0409802e-38
0.065936491 -0.1750728 0.69500005 1.4289265e-38
-0.10090667 -0.16101335 0.6910001 9.7651305e-39
-0.095115438 -0.16127622 0.6910001 9.7655089e-39
-0.084513076 -0.1614738 0.69281822 1.0041375e-38
-0.074518271 -0.16324578 0.69458139 9.8569772e-39
-0.065299645 -0.16648616 0.6936298 9.8577003e-39
-0.055373855 -0.16764538 0.69510001 1.0040661e-38
-0.046860058 -0.16822992 0.69705886 9.9495232e-39
0.067840956 -0.16189398 0.69383335 1.4104153e-38
-0.14224648 -0.15092345 0.69020003 9.5811162e-39
-0.13474652 -0.15149236 0.69112003 9.6729503e-39
-0.12439344 -0.15238291 0.69275779 9.672244e-39
-0.11476714 -0.15366559 0.69379658 9.6725874e-39
-0.10537063 -0.15542705 0.69472247 9.7647872e-39
-0.095032498 -0.15700878 0.69536382 9.85698e-39
-0.086626671 -0.15827636 0.69595003 9.857336e-39
0.067596316 -0.15630922 0.6958667 1.4197068e-38
-0.18268573 -0.14062858 0.69000006 9.3041608e-39
-0.17334613 -0.14152829 0.6910001 9.4892807e-39
-0.16503048 -0.14248523 0.69283813 9.3963718e-39
-0.15471967 -0.14426926 0.69338912 9.4882003e-39
-0.14500624 -0.14637093 0.69328326 9.4889038e-39
-0.13525403 -0.1468167 0.69534153 9.5800316e-39
-0.12574096 -0.14818637 0.69630772 9.4892793e-39
-0.11859353 -0.14837484 0.69800001 9.3967362e-39
0.067424074 -0.14242494 0.69409102 1.4382189e-38
-0.19497286 -0.13412319 0.69418049 9.1201367e-39
-0.18512231 -0.13658062 0.69432002 9.1204926e-39
-0.17547446 -0.13714327 0.69446361 9.3048909e-39
-0.1657144 -0.13851519 0.6974737 9.303795e-39
0.068283223 -0.13566487 0.69363159 1.4658419e-38
0.068295397 -0.12502083 0.69315392 1.4934645e-38
0.068201102 -0.11463692 0.6942693 1.530271e-38
0.071292073 -0.11165684 0.69099998 1.5949889e-38
0.068395533 -0.10528481 0.69605881 1.5580736e-38
0.070705585 -0.10558981 0.69292861 1.6042438e-38
0.068202138 -0.094813555 0.69647062 1.5765488e-38
0.070860848 -0.094482481 0.69347066 1.6503407e-38
0.068519108 -0.084252894 0.69494116 1.6134265e-38
0.070974372 -0.08590477 0.69300008 1.6595254e-38
0.068848103 -0.077221118 0.69400001 1.6319378e-38
0.070951745 -0.074761488 0.69266671 1.6780004e-38
0.068937145 -0.06231048 0.6960001 1.7056578e-38
0.070995107 -0.063737974 0.69300002 1.7240611e-38
0.06901969 -0.05640794 0.69683337 1.7333162e-38
0.072408117 -0.054908574 0.69445717 1.7609395e-38
0.036453653 -0.1909343 0.7001667 1.0502331e-38
0.045172337 -0.19127105 0.70164007 1.0133928e-38
0.055191033 -0.19284087 0.70364469 9.5814763e-39
0.062882744 -0.19329041 0.70293343 9.3978124e-39
0.0060049528 -0.18144926 0.70045 1.0317962e-38
0.014875876 -0.18259245 0.70143348 1.0593835e-38
0.024825137 -0.18410882 0.70308942 1.0318327e-38
0.034698173 -0.18648216 0.70415241 1.0501991e-38
0.044810038 -0.18784173 0.70643348 1.0317604e-38
0.052594285 -0.18879999 0.708 9.9491827e-39
0.062678769 -0.18576562 0.70370597 1.0874775e-38
-0.031751242 -0.17129754 0.70040005 1.0316527e-38
-0.024596076 -0.17194387 0.70209098 1.0225039e-38
-0.014490315 -0.1732192 0.70246357 1.0317602e-38
-0.0052034445 -0.17448047 0.70342314 1.0317602e-38
0.0043514674 -0.17627199 0.70473987 1.0409799e-38
0.014456309 -0.17769893 0.70593762 1.0409796e-38
0.021824 -0.17942593 0.70719999 1.0317975e-38
0.064546332 -0.17268449 0.70599997 1.4381107e-38
-0.080666676 -0.16000001 0.70000005 1.0133568e-38
-0.074179292 -0.16019525 0.70012498 1.0133924e-38
-0.064160004 -0.16171232 0.70116675 1.0132845e-38
-0.054695647 -0.16319078 0.70296991 1.004101e-38
-0.044720322 -0.16428109 0.70314825 1.0041018e-38
-0.035057284 -0.16698354 0.70397562 1.01332e-38
-0.025691561 -0.16750547 0.70606917 1.0225053e-38
-0.015331135 -0.16895416 0.70699996 1.0133566e-38
-0.0074171424 -0.16992 0.708 9.9488351e-39
0.064180024 -0.16531391 0.70428216 1.4288902e-38
-0.10218135 -0.15233882 0.70033336 9.7651375e-39
-0.094152391 -0.15231705 0.70170385 9.7651403e-39
-0.084568106 -0.15395406 0.70309258 9.7647942e-39
-0.075165652 -0.15524547 0.70446306 9.8569856e-39
-0.064821795 -0.15693137 0.70560479 9.9488113e-39
-0.055411134 -0.15777512 0.70684385 9.9495372e-39
-0.048300635 -0.15860699 0.70766675 1.0500907e-38
0.064518169 -0.15461458 0.70268971 1.4289267e-38
-0.16000001 -0.14 0.70000005 9.3952634e-39
-0.15401872 -0.1405576 0.70036364 9.3959991e-39
-0.14479323 -0.14159851 0.70160878 9.3967277e-39
-0.13439336 -0.14222743 0.70324254 9.4885436e-39
-0.12502091 -0.1435948 0.70445675 9.5800288e-39
-0.11516647 -0.14589702 0.70466691 9.672223e-39
-0.10543575 -0.14785968 0.70425701 9.6733076e-39
-0.095565714 -0.14810449 0.70592582 9.6736594e-39
-0.085501119 -0.1490943 0.70783341 9.6729545e-39
-0.078217141 -0.14969143 0.70800006 9.7651459e-39
0.065880105 -0.1463161 0.70445001 1.4473307e-38
-0.15517434 -0.1357224 0.7045688 9.2123295e-39
-0.14534578 -0.13679089 0.70623833 9.3967235e-39
-0.13617364 -0.13839526 0.70644999 9.5803847e-39
0.065838426 -0.13540404 0.70305562 1.4474017e-38
0.066159435 -0.12376364 0.70170003 1.4657693e-38
0.065789849 -0.11744931 0.70333332 1.4657701e-38
0.066500261 -0.10455064 0.70209098 1.5211225e-38
0.066162944 -0.094818532 0.70109093 1.5395985e-38
0.06691429 -0.085368387 0.70260006 1.5673292e-38
0.068056673 -0.07393679 0.70493752 1.6226466e-38
0.071111113 -0.071111113 0.70000005 1.6871835e-38
0.068312623 -0.065130956 0.70325005 1.6687436e-38
0.070666671 -0.068666667 0.70000005 1.6964024e-38
0.056800004 -0.19068572 0.71000004 9.3049007e-39
0.029435238 -0.18134621 0.7105 1.0410894e-38
0.036009446 -0.1817091 0.71172005 1.0409802e-38
0.044940554 -0.18287927 0.71344179 1.0225058e-38
0.055228226 -0.18488498 0.71335369 9.119422e-39
0.061661638 -0.18382399 0.71149999 9.6747958e-39
-0.0023685715 -0.17030001 0.71100003 1.0132837e-38
0.0053396197 -0.17161316 0.71243346 1.0225771e-38
0.015243509 -0.17302456 0.71381575 1.0317961e-38
0.02469958 -0.17595415 0.71449989 1.0317605e-38
0.034399472 -0.17714925 0.71680534 1.0225764e-38
0.044127148 -0.17855653 0.71833336 1.0409443e-38
0.058889527 -0.17872286 0.71900004 7.1801244e-39
0.061248813 -0.17764714 0.71262503 1.2262752e-38
-0.041503809 -0.16161025 0.71150005 1.0133588e-38
-0.034982201 -0.16223317 0.71203452 1.0134289e-38
-0.02447515 -0.16325918 0.71306819 1.0317598e-38
-0.014945538 -0.16436402 0.71440732 1.0225402e-38
-0.0057214806 -0.16643342 0.71546668 1.0133571e-38
0.0041431547 -0.16724969 0.71734369 1.0317961e-38
0.013890887 -0.16884276 0.71899998 1.0501635e-38
0.020542858 -0.16982096 0.71900004 1.1144116e-38
0.058433019 -0.16114731 0.71900004 1.4566219e-38
0.060984194 -0.16158536 0.71470004 1.4473299e-38
-0.072487108 -0.15125197 0.71072727 9.7654907e-39
-0.065042056 -0.15199435 0.71200013 9.9491644e-39
-0.0548141 -0.1530107 0.71392858 1.0041367e-38
-0.044892043 -0.15539813 0.71467334 9.8577059e-39
-0.035339244 -0.15652671 0.71571791 1.0041366e-38
-0.025631692 -0.1583492 0.71695447 1.0041374e-38
-0.019173333 -0.15886477 0.71900004 1.0132821e-38
0.062217016 -0.15398246 0.71678573 1.4288917e-38
-0.12239048 -0.14064762 0.71000004 9.5803917e-39
-0.1137957 -0.14150047 0.71066678 9.8562626e-39
-0.10469609 -0.14293829 0.712349 9.7647816e-39
-0.09446197 -0.14324552 0.7132445 9.9491757e-39
-0.084814884 -0.1447143 0.71479619 9.6733062e-39
-0.075441368 -0.14709525 0.71508324 9.9488239e-39
-0.065411977 -0.14808041 0.71653581 9.8566171e-39
-0.058204763 -0.1492781 0.71900004 9.9491686e-39
0.063204266 -0.1458206 0.71547621 1.4472938e-38
-0.11533833 -0.13699453 0.715841 9.5796687e-39
-0.10609418 -0.138044 0.71716666 9.5803805e-39
-0.095811814 -0.13933983 0.71859998 9.8569842e-39
-0.086280003 -0.13969146 0.71900004 9.9491715e-39
0.063231803 -0.13391122 0.71515381 1.4564771e-38
0.058889527 -0.12668097 0.71900004 1.4289258e-38
0.063093655 -0.12536192 0.71583325 1.4381823e-38
0.064080492 -0.11484087 0.71585184 1.4473662e-38
0.064149767 -0.10482231 0.71437031 1.4749888e-38
0.064480916 -0.095062174 0.71543992 1.4935001e-38
0.065837793 -0.084930435 0.71595991 1.5488532e-38
0.053849906 -0.18078022 0.72120011 9.4881933e-39
