# .PCD v0.7 - Point Cloud Data file format
VERSION 0.7
FIELDS x y z normal_x normal_y normal_z curvature
SIZE 4 4 4 4 4 4 4
TYPE F F F F F F F
COUNT 1 1 1 1 1 1 1
WIDTH 591
HEIGHT 1
VIEWPOINT 0 0 0 1 0 0 0
POINTS 591
DATA ascii
-0.17116967 0.064702362 0.52371049 -0.66109473 0.29879683 0.69006914 0.026411487
-0.17365114 0.060069826 0.52295125 -0.6751045 0.23957182 0.70099753 0.021680813
-0.15206839 0.13926677 0.53009325 0.75186425 0.041790761 -0.65834355 0.014898024
-0.15586102 0.13287206 0.52348197 0.74874938 0.18184194 -0.64306784 0.022877794
-0.15677005 0.1283091 0.51976156 0.72710574 0.22327887 -0.64959204 0.042359434
-0.15205871 0.15399455 0.52938443 0.68807071 -0.089744583 -0.72177535 0.0041755559
-0.155853 0.14643319 0.52642518 0.71758223 0.0065581119 -0.69837058 0.016362738
-0.15741363 0.13869955 0.52391577 0.73388094 0.14533189 -0.66581321 0.023154547
-0.15208817 0.1636267 0.5273096 -0.66784286 0.2408696 0.72785759 0.0045186742
-0.15391508 0.15891102 0.52693856 -0.68203259 0.15687044 0.72624516 0.0041622762
-0.15862618 0.14930308 0.523561 0.70360065 -0.013991803 -0.71390241 0.016827162
-0.076483116 0.034685269 0.4872025 0.86094844 0.040810272 -0.68527335 0.10111437
-0.076451041 0.032427669 0.4865056 0.8792724 0.20799899 -0.77506095 0.10757257
-0.072332688 0.04609403 0.48798421 0.77627689 -0.17889313 -0.61950088 0.10067306
-0.075575337 0.038979668 0.48711029 0.80564022 -0.18108763 -0.56858194 0.086025871
-0.078198314 0.032791574 0.48431808 0.83670759 0.18276389 -0.77734178 0.097911872
-0.068671934 0.067299917 0.49143898 -0.6217348 0.0034132779 0.78351319 0.091696799
-0.07196559 0.060458444 0.48858625 -0.6621424 -0.0056705284 0.74939167 0.1273558
-0.073562317 0.051636193 0.48503661 -0.73119336 0.034644593 0.6904186 0.12690185
-0.076398268 0.045567438 0.4830516 0.78091741 -0.079033904 -0.62901551 0.14616655
-0.061578713 0.088086955 0.49420789 -0.47839239 0.087233439 0.87414521 0.07655222
-0.066413186 0.082478434 0.4933728 -0.51930463 0.00049828953 0.85550088 0.094271369
-0.071200348 0.073453031 0.49028778 -0.55440968 -0.087806389 0.82787043 0.11640203
-0.07562495 0.068207525 0.48705986 -0.55436474 -0.13399404 0.82221931 0.16047718
-0.058669154 0.10399206 0.49174058 -0.47254425 0.23422159 0.85061312 0.085102797
-0.064427942 0.095979676 0.49174798 -0.35109279 0.12976412 0.93122637 0.10728116
-0.069314316 0.087643959 0.49046704 -0.28402436 -0.038839448 0.96305984 0.13847359
-0.073693357 0.08086478 0.48702002 -0.071294792 -0.21415228 0.98476428 0.1683958
-0.08126732 0.074872024 0.48372635 0.18800049 -0.36517781 0.93622041 0.18062995
-0.09048292 0.069518536 0.48548278 0.32275116 -0.49113634 0.820346 0.20410065
-0.097100332 0.0650056 0.48616531 0.045404382 -0.83963406 0.57391787 0.17981102
-0.099478878 0.063561596 0.48798051 -0.066865429 -0.88100094 0.4858599 0.1301211
-0.052800465 0.12463378 0.49148181 -0.70084989 0.1504271 0.70930827 0.071506977
-0.057130769 0.11748451 0.48863673 -0.63864172 0.21097751 0.77180004 0.10503063
-0.061163832 0.10915329 0.48899561 -0.42550156 0.27093601 0.86348689 0.0967637
-0.070108183 0.10129322 0.48736838 0.036147807 0.21989316 0.98150843 0.1675781
-0.074751377 0.094377227 0.48886544 0.19955827 0.024149079 0.98198134 0.15730235
-0.078216463 0.087396249 0.48917004 0.23697354 -0.17036991 0.95678961 0.15187202
-0.086604521 0.078065939 0.48985398 0.38282564 -0.37689421 0.85208476 0.14454173
-0.094952941 0.071128078 0.49372041 0.46755508 -0.47202361 0.75501782 0.13583688
-0.10134324 0.067021869 0.49516425 0.29617956 -0.7718882 0.59360331 0.11383095
-0.052452195 0.13637678 0.48933572 -0.70996386 0.10596029 0.69685656 0.0042357794
-0.054737665 0.13081339 0.48813528 -0.71442968 0.12999333 0.68928742 0.03505075
-0.058258284 0.12318875 0.4843013 -0.71043277 0.19624576 0.72831905 0.0923732
-0.07716386 0.10778804 0.49001977 0.4439708 0.2225422 0.87208194 0.1734885
-0.081912644 0.1022974 0.4938592 0.51529872 -0.024992503 0.85880107 0.12453642
-0.099795155 0.07313966 0.50185078 0.47483104 -0.6354841 0.63075072 0.05681077
-0.10498344 0.069079317 0.50022203 0.2772646 -0.83146805 0.51887381 0.06481
-0.053659201 0.13912758 0.48754421 0.69590074 -0.12428406 -0.70747459 0.0038211048
-0.054785758 0.13768293 0.48676336 0.72304571 -0.097395375 -0.68532383 0.0045170444
-0.080978923 0.11247199 0.49393103 0.67574835 0.15095474 0.72460574 0.14443821
-0.086123846 0.10808375 0.49854448 0.65450329 -0.21927142 0.73017079 0.077754326
-0.085349314 0.11709449 0.49835071 0.8022539 -0.091901489 0.60874259 0.089664489
-0.086851783 0.11477327 0.50009179 0.75019449 -0.21191086 0.65861565 0.081558339
-0.16803147 0.082507983 0.5130201 -0.22184971 0.52084464 0.82451952 0.12607206
-0.17098747 0.076726757 0.51477921 -0.48144677 0.44037247 0.75830024 0.089561537
-0.177659 0.069510914 0.51643831 -0.62653154 0.29235429 0.7455399 0.04903857
-0.18208571 0.060672995 0.51453453 -0.73167413 0.14251095 0.69307679 0.023004735
-0.17294197 0.085214242 0.50925195 -0.29582384 0.37379989 0.87947583 0.11137783
-0.17391844 0.082048729 0.51013714 -0.41832918 0.38893312 0.82086629 0.098624945
-0.18002123 0.0738471 0.51185143 -0.59679031 0.29027039 0.76741946 0.067276403
-0.15952069 0.12513034 0.51411545 -0.63323289 -0.28694919 0.71934432 0.063239768
-0.15960759 0.12396646 0.51347488 -0.65321839 -0.25307083 0.71416169 0.069427691
-0.15873833 0.13122293 0.51870596 0.72023153 0.1945222 -0.66637594 0.040045682
-0.16118515 0.12675589 0.51356244 0.68404639 0.18461609 -0.7068513 0.061736953
-0.16179948 0.14493136 0.51983804 0.69275576 0.060892284 -0.72105283 0.021813918
-0.16293682 0.14012542 0.51746619 0.6626128 0.13072446 -0.74332225 0.029267022
-0.081082024 0.040365297 0.47890961 0.76883924 -0.18575208 -0.62182879 0.12324806
-0.085151918 0.033902101 0.47681355 0.78503656 0.059563685 -0.76062655 0.093940519
-0.078373209 0.059922561 0.48370257 0.71997434 0.044675756 -0.69269949 0.14705881
-0.080902614 0.053720754 0.47970709 0.78339487 0.063161857 -0.61934811 0.18221733
-0.082404673 0.046103496 0.47640023 0.80670005 -0.058790728 -0.59893864 0.19336483
-0.080723748 0.065057039 0.48395228 -0.667005 -0.15163013 0.7295745 0.19483513
-0.083611481 0.061975699 0.4794333 0.71972537 0.2276554 -0.65633875 0.20283633
-0.082350031 0.068235844 0.48262194 -0.30148432 -0.42422363 0.87275898 0.22272596
-0.086715363 0.067583367 0.48008966 -0.11270899 -0.68038028 0.74435133 0.24263249
-0.097237423 0.064611889 0.48395759 0.010372523 -0.8742519 0.51914901 0.20917825
-0.10123985 0.064831272 0.48368958 -0.080569856 -0.95094401 0.35454485 0.15354364
-0.063458957 0.11788004 0.48330501 -0.47510204 0.35280102 0.80666965 0.089508556
-0.067219645 0.11267212 0.48475409 -0.2441157 0.40645957 0.88592869 0.1305166
-0.067947932 0.10528053 0.48657808 -0.10967687 0.32123667 0.94214904 0.15091939
-0.10150887 0.063473575 0.48671108 0.038942114 -0.8955282 0.48083487 0.14869335
-0.10254128 0.064514451 0.48412082 -0.089303322 -0.95099813 0.35542613 0.13623442
-0.059855472 0.13188359 0.48120418 -0.76054531 0.076908797 0.68641537 0.045141451
-0.063545555 0.12414355 0.47861195 -0.5986414 0.31171802 0.74701387 0.0810868
-0.070697762 0.11545886 0.48250198 -0.16838025 0.4980391 0.86861956 0.14187114
-0.074249521 0.11102103 0.48502392 0.1651011 0.46017042 0.87856936 0.18437827
-0.059361242 0.14141932 0.48116529 0.72704351 -0.095568322 -0.68051124 0.0041120546
-0.061766919 0.13715807 0.47892743 0.73749423 -0.079255089 -0.67683262 0.0070989784
-0.081605814 0.1179531 0.49179801 0.634624 0.47972691 0.65715647 0.15721048
-0.084457479 0.12002737 0.49540523 0.81797397 0.10993551 0.56979078 0.097646222
-0.16397752 0.094073318 0.50780207 0.039385308 0.158346 0.98676354 0.11644034
-0.16747355 0.088219449 0.50982672 -0.022852298 0.37161011 0.93164134 0.12079943
-0.18308173 0.070555091 0.51050061 -0.67410368 0.19568408 0.74105108 0.038922243
-0.16205241 0.11239225 0.50637811 -0.44721049 -0.1524995 0.88328922 0.094259687
-0.16899581 0.097831137 0.50604594 -0.13982774 0.18712319 0.97289264 0.10009499
-0.17247465 0.091052748 0.50765014 -0.19617802 0.30387288 0.9329564 0.10191185
-0.18136173 0.083445214 0.50753486 -0.46690825 0.27535766 0.85028547 0.082776733
-0.18429969 0.075629964 0.50848877 -0.64192086 0.20504229 0.78232086 0.048454881
-0.18824859 0.068984747 0.50598478 -0.78754461 0.071519725 0.70502579 0.038863879
-0.15980677 0.1236378 0.51318014 -0.62209046 -0.30363357 0.72194183 0.068102889
-0.1628093 0.11877886 0.50806373 -0.54564995 -0.21707782 0.81166083 0.089728802
-0.16755116 0.11327121 0.5038749 -0.38138321 -0.11546408 0.9193812 0.091632634
-0.17331503 0.10460494 0.50294006 -0.25642392 0.066514187 0.96515918 0.087088451
-0.17666429 0.096989997 0.50411302 -0.28053346 0.21272838 0.93600029 0.087421827
-0.18460159 0.088048987 0.50532287 -0.57323742 0.2085108 0.85146838 0.07314527
-0.16786157 0.13288671 0.51235193 -0.52883852 -0.2383378 0.82142836 0.059528634
-0.1661642 0.12479191 0.5079568 -0.53750551 -0.1939808 0.82252103 0.077346578
-0.17112511 0.1191189 0.50407004 -0.3625547 -0.17931019 0.91651964 0.092465967
-0.17555277 0.11100293 0.50204474 -0.27415922 -0.048482321 0.96320534 0.088951781
-0.17001498 0.13907911 0.5121159 -0.61745757 -0.050187562 0.80114222 0.039901342
-0.17348731 0.13249654 0.50902575 -0.68832558 -0.030466758 0.79653269 0.05486761
-0.091205716 0.034910508 0.46932271 0.76792842 -0.023997603 -0.73182273 0.093635619
-0.085612893 0.054287955 0.47260445 0.81248081 0.010968632 -0.5834676 0.17291914
-0.087173164 0.046818167 0.4676412 0.7765733 -0.12019616 -0.64358944 0.18280695
-0.090630084 0.040032905 0.4672488 0.69075435 -0.29391152 -0.663818 0.11700287
-0.087016173 0.058601554 0.47207397 0.75483984 0.22228199 -0.617531 0.20738989
-0.088768058 0.054522619 0.46665907 0.73850954 0.17903695 -0.65106523 0.2179434
-0.069136515 0.12583731 0.47387716 -0.54258925 0.41839436 0.73256159 0.074305996
-0.074449442 0.12117451 0.47542575 -0.35092837 0.59489548 0.75825572 0.094540469
-0.065716788 0.14602605 0.47362676 0.71528953 -0.065126181 -0.69674176 0.004362423
-0.068164542 0.14010856 0.47179899 0.71014947 -0.085354939 -0.6995852 0.00441813
-0.069290057 0.13076928 0.47078532 -0.65540355 0.26384398 0.71115023 0.060879201
-0.068701342 0.14945589 0.47035429 -0.70474434 0.031271156 0.71152067 0.0038881763
-0.069598787 0.14680074 0.46965408 -0.70035094 0.053272571 0.71320182 0.0040059127
-0.16201128 0.099575415 0.50693208 -0.064938754 0.025908185 0.99820161 0.11457782
-0.16180839 0.098560192 0.50721645 -0.036721263 0.091078937 0.99569243 0.11567078
-0.1635934 0.11108615 0.50556129 -0.39619419 -0.12070047 0.91062146 0.091130123
-0.16561905 0.10590444 0.50494772 -0.25666982 0.0020850108 0.96653438 0.09519884
-0.16683842 0.10151131 0.50556755 -0.16541719 0.091932289 0.98234397 0.10092248
-0.18139629 0.091480277 0.50508147 -0.40643629 0.22735938 0.89365298 0.083049111
-0.18716075 0.084052339 0.50424242 -0.67349565 0.17052469 0.80517405 0.06564419
-0.19126448 0.078732081 0.50150347 -0.85593051 0.094637454 0.71748465 0.051870793
-0.19417968 0.07036116 0.49894026 -0.86450481 -0.00017202436 0.64234406 0.042634256
-0.16799992 0.10937513 0.50361848 -0.31789428 -0.034885436 0.94806886 0.091182634
-0.17072284 0.10604735 0.50347471 -0.24814031 0.036191061 0.96877897 0.084480584
-0.18502298 0.098150976 0.50247043 -0.64218062 0.15436701 0.86780232 0.07436157
-0.18733294 0.090070404 0.50302833 -0.75527775 0.17414394 0.8237021 0.071905591
-0.18957226 0.08306019 0.50218278 -0.77982986 0.13426955 0.7505607 0.062288333
-0.18114138 0.12015544 0.50289446 -1.0199943 0.15984295 0.95391339 0.072257124
-0.18458906 0.11247841 0.50066686 -1.1101043 0.15196827 0.99068266 0.06771981
-0.18831559 0.10436758 0.49789232 -1.3378754 0.20656365 0.91254735 0.067365639
-0.18561837 0.12003685 0.4974297 -1.5037578 0.33781055 0.90848696 0.073494934
-0.092992544 0.047729515 0.45906639 0.66088825 -0.19890033 -0.72931808 0.17612767
-0.096920088 0.041356619 0.46073639 -0.69891 0.24908085 0.69796854 0.13768041
-0.094641306 0.058888774 0.45999375 -0.50217783 -0.34493822 0.79831874 0.19783188
-0.093869552 0.053792156 0.45931658 -0.58246422 -0.21567667 0.78421247 0.21948013
-0.097128004 0.047439072 0.45638579 -0.64383185 0.18288991 0.74323601 0.14426987
-0.076055966 0.12709738 0.46661916 -0.5690884 0.44723246 0.70827025 0.062483162
-0.080112487 0.12404215 0.46745104 -0.31619602 0.78869951 0.71520078 0.083343141
-0.074559458 0.14092927 0.46539387 -0.69302869 0.076808967 0.71707338 0.0039556534
-0.077578612 0.13324375 0.46346802 -0.69034237 0.11355088 0.71453011 0.0047888341
-0.08123903 0.12639883 0.4625462 -0.56171876 0.47579625 0.71314454 0.056763589
-0.075721376 0.14659242 0.46380332 -0.68233877 0.039214633 0.73246419 0.0037318536
-0.078716815 0.14055632 0.46161523 -0.68529481 0.068789989 0.72551376 0.0036555692
-0.18803142 0.11424968 0.49572834 -1.5473187 0.29627755 0.92157787 0.071393743
-0.18966657 0.10727827 0.49541417 -1.535726 0.25470167 0.96157169 0.068404868
-0.10255381 0.042467702 0.45501706 -0.63833559 0.26893693 0.72243494 0.088082507
-0.10082513 0.056067258 0.45429918 -0.51492906 -0.34125096 0.79488569 0.15824947
-0.10390585 0.048147351 0.45163155 -0.62559754 0.15370163 0.76513064 0.11499619
-0.10251288 0.058872782 0.45868739 -0.29806793 -0.58381373 0.76396495 0.17099881
-0.083484061 0.13465902 0.4578481 -0.69873089 0.071267694 0.71204203 0.003769058
-0.085022151 0.1299227 0.45685151 -0.71057886 0.075766027 0.69995427 0.0040664631
-0.087957859 0.13343509 0.45343837 -0.70966965 0.060037807 0.70239836 0.0043427474
-0.12079716 0.096652023 0.57242507 0.76207596 -0.11228143 -0.64145559 0.0042242054
-0.12132782 0.08745186 0.57306212 0.65348309 -0.08770296 -0.76614898 0.0036712412
-0.12206879 0.076866604 0.57343578 0.61374217 -0.038919702 -0.80701262 0.0044915415
-0.12221256 0.069952495 0.5734129 0.56439543 -0.0034726434 -0.86042261 0.004360328
-0.12149177 0.14303312 0.55885476 -0.56228876 0.31488499 0.8049528 0.0052810274
-0.12173934 0.13563672 0.56134301 0.637851 -0.23512174 -0.74519569 0.0040217466
-0.12276424 0.12640339 0.56279492 0.73083508 -0.17562184 -0.66006482 0.0032259515
-0.12290379 0.11517159 0.565467 0.76296419 -0.14932297 -0.63083959 0.0030718658
-0.12364276 0.10727541 0.56632429 0.76403737 -0.15049675 -0.62952572 0.003126502
-0.1255673 0.096154831 0.56732053 0.70588672 -0.15362535 -0.69731307 0.0071777445
-0.1254456 0.085977145 0.56945723 0.6874522 -0.11988075 -0.72296894 0.0061622332
-0.12619805 0.076293834 0.57004958 0.66352451 -0.074874282 -0.75510979 0.0048523652
-0.12735513 0.067285568 0.57001805 -0.61778677 0.010442788 0.80418998 0.0039893696
-0.12988473 0.058801416 0.56773579 -0.59748298 -0.08446569 0.83602077 0.0043956218
-0.12395459 0.14340322 0.55702347 0.60234129 -0.26128182 -0.77596915 0.0044273664
-0.12493127 0.13524699 0.5584718 0.67817903 -0.177276 -0.71556211 0.0035101068
-0.12611289 0.12525919 0.55939823 0.72769213 -0.15957803 -0.66719437 0.0030155729
-0.12745914 0.11256697 0.5605908 0.74946606 -0.14279088 -0.64695311 0.0027925591
-0.12875071 0.1038037 0.56174499 0.73542464 -0.15286395 -0.66266441 0.0058320141
-0.12791553 0.097238608 0.56453311 0.72481257 -0.16024098 -0.67260307 0.0063927723
-0.12997802 0.084274702 0.5646497 0.73746967 -0.1404487 -0.66426206 0.028088942
-0.13060683 0.076450802 0.56595862 0.69302338 -0.10750642 -0.72238261 0.0077309273
-0.13082466 0.065726705 0.56725538 -0.64437491 0.025376182 0.77466023 0.003674478
-0.13206191 0.058714051 0.56609809 -0.61759514 -0.061525829 0.81310356 0.0038044997
-0.1233158 0.14746727 0.555843 -0.54056728 0.34113672 0.82203037 0.0052309353
-0.12869589 0.10825937 0.56092817 0.74249041 -0.19064224 -0.67392403 0.060129616
-0.12760423 0.15226626 0.55106395 -0.57523423 0.30416557 0.80134118 0.0044513345
-0.12812166 0.14554097 0.55294478 -0.64083987 0.21110047 0.74848276 0.0036985346
-0.13096155 0.13611506 0.55235928 0.69565493 -0.14064223 -0.70478582 0.0028759071
-0.13015343 0.12596259 0.5550406 0.70842123 -0.14334013 -0.69109201 0.0030667754
-0.12920484 0.11686956 0.55700481 0.75046027 -0.14013264 -0.64630651 0.028591899
-0.12960468 0.10777545 0.55968726 0.76048696 -0.1871036 -0.63906139 0.056837268
-0.13683733 0.095761999 0.55845797 0.89359009 -0.24610643 -0.48465183 0.14237003
-0.13519059 0.088766828 0.55993658 0.82716173 -0.22597833 -0.52273434 0.094040923
-0.13699631 0.075615585 0.55892277 0.74337655 -0.17197338 -0.64726502 0.027157426
-0.1376141 0.06646046 0.56078941 0.69908935 -0.099083267 -0.71826589 0.0063955896
-0.13889062 0.05606259 0.56040406 0.65311563 0.011297886 -0.7753101 0.0034618736
-0.14028034 0.049962796 0.55889589 -0.63022488 -0.084606148 0.80536604 0.0041024927
-0.14005576 0.075807214 0.55460256 0.779203 -0.23470795 -0.581191 0.067632407
-0.14097759 0.064493172 0.55789977 0.703861 -0.10639077 -0.71229064 0.006706601
-0.14263861 0.057164229 0.55708808 0.68919557 -0.043057282 -0.73519498 0.0039632102
-0.13367429 0.15372956 0.54622602 -0.63117927 0.20120199 0.7612105 0.0030546095
-0.13442567 0.14645839 0.54697567 -0.67287922 0.1412653 0.72788513 0.0033433731
-0.1367099 0.13546848 0.54678404 0.72767591 -0.042706106 -0.68472505 0.035172094
-0.13633713 0.12476708 0.54476756 0.86547571 0.22456622 -0.47230938 0.11488188
-0.13879767 0.094341829 0.55166596 0.95726478 -0.29449716 -0.059517324 0.14048876
-0.14107779 0.088291742 0.54857045 0.94936919 -0.43121618 -0.2225756 0.15603127
-0.14159618 0.07942301 0.55444169 0.87241 -0.32217744 -0.36855763 0.14224078
-0.14366958 0.071162522 0.55478871 0.77083802 -0.2437772 -0.60846013 0.090634517
-0.14329956 0.048267722 0.55647576 0.64079934 0.069127701 -0.79301602 0.0031704081
-0.13944772 0.16126873 0.53918141 -0.62736768 0.24536374 0.75620103 0.0041324166
-0.13836004 0.15540154 0.54172909 -0.65553415 0.16346292 0.74144197 0.0033541729
-0.13887388 0.14547171 0.54295719 -0.6869204 0.11869127 0.71755481 0.0035833782
-0.14034386 0.1356388 0.54280341 0.71772671 -0.10284921 -0.68875611 0.0030707573
-0.13893524 0.12513329 0.54159755 0.83312601 0.15980969 -0.54552448 0.084394149
-0.13799472 0.11829445 0.54263723 0.87982655 0.033429131 -0.49623707 0.061738931
-0.1399412 0.093002401 0.55003762 0.95454276 -0.31353238 -0.086318918 0.14870583
-0.14274648 0.085620217 0.54886609 0.88316727 -0.46193641 -0.13473953 0.16998054
-0.14325596 0.075271286 0.55282849 0.81956249 -0.33385614 -0.46591088 0.10660041
-0.14595978 0.066269584 0.55179822 0.73601872 -0.16285972 -0.65752435 0.0056343297
-0.14763843 0.056473672 0.55202532 0.71278507 -0.089859933 -0.70003599 0.0049049957
-0.14764096 0.047800843 0.5528388 0.67362851 -0.059440818 -0.74589574 0.0053545283
-0.11963592 0.10740488 0.5232867 0.33287901 0.15943764 0.94592232 0.095759794
-0.1193847 0.10134905 0.5250476 0.52325714 0.072697423 0.8523798 0.094158106
-0.12183715 0.093728781 0.52820414 0.65074593 -0.1580223 0.74271464 0.10762005
-0.12462854 0.08788573 0.5284788 0.6015231 -0.41225156 0.68990654 0.12553075
-0.12841117 0.090843961 0.53167975 0.6900332 -0.26876459 0.67237842 0.14924474
-0.12944616 0.087415516 0.53408587 0.72968572 -0.32289749 0.60697192 0.10996827
-0.14321131 0.1628786 0.53552961 -0.64438295 0.24402674 0.7425006 0.0045285239
-0.14442867 0.1542822 0.5365302 -0.67253006 0.129761 0.7310639 0.0036293664
-0.14462546 0.14577262 0.5374555 0.69997364 -0.086629435 -0.70916283 0.0043052156
-0.14551274 0.13516201 0.5376094 0.75292999 -0.031473909 -0.65743434 0.010741271
-0.14458416 0.12842964 0.53708309 0.77134871 0.2811158 -0.58925784 0.046174098
-0.15009655 0.065842614 0.54651022 0.75443399 -0.22495398 -0.617136 0.028270643
-0.15245897 0.0558304 0.54672503 0.72201145 -0.14320002 -0.67903626 0.0050809444
-0.15318197 0.045293663 0.54799175 0.68984723 -0.18159923 -0.70252824 0.0066367607
-0.14842057 0.1631365 0.53088272 -0.66545874 0.24019788 0.7297979 0.0045417151
-0.14917473 0.15548228 0.53192669 -0.67786831 0.11734055 0.729182 0.0042043519
-0.1496041 0.14503661 0.53293526 0.71796 -0.038376197 -0.69602215 0.0093031265
-0.14996096 0.13529173 0.53250206 0.77280325 0.060923237 -0.63373846 0.015239567
-0.14879921 0.12989351 0.53262931 0.77922899 0.22338578 -0.59904689 0.022840289
-0.15681267 0.054529257 0.54186195 0.71600187 -0.17065679 -0.67731869 0.0051603536
-0.15718971 0.046913434 0.54329282 0.6973213 -0.18229716 -0.69376034 0.0058369222
-0.041007426 0.091570154 0.5077545 -0.44308606 0.026808903 0.90254331 0.037732307
-0.10516606 0.096173808 0.51568407 0.64530766 -0.074417427 0.76081687 0.038328294
-0.10936111 0.10850734 0.5178256 0.52210039 0.0092080943 0.85502392 0.076769479
-0.11022963 0.099995196 0.51968253 0.57889092 0.026928572 0.81705368 0.064156696
-0.11099118 0.091302477 0.52034056 0.57489431 -0.19159624 0.79549491 0.08120589
-0.11345335 0.084063672 0.51917267 0.49222711 -0.47097075 0.74857926 0.091015421
-0.11417441 0.11699221 0.52026212 0.41774911 -0.11021039 0.93946087 0.11227402
-0.11567365 0.11029764 0.52130836 0.42940545 0.089924932 0.90657759 0.089747488
-0.11552256 0.10246866 0.52283573 0.48755109 0.10904294 0.87114376 0.073731735
-0.11762989 0.0905229 0.52436221 0.47375858 -0.22631082 0.85237575 0.11492737
-0.12075106 0.085645951 0.52423394 0.47238886 -0.46587372 0.76292861 0.1293768
-0.1297342 0.085253648 0.52882266 0.59169209 -0.56961679 0.57985467 0.16698481
-0.15350498 0.16204306 0.52648109 -0.67924899 0.2080581 0.72193158 0.003786671
-0.15520714 0.15508737 0.52634734 0.68749481 -0.09041103 -0.72540045 0.0084605208
-0.15536273 0.14510487 0.52685964 0.72383755 0.018956728 -0.69062364 0.01505929
-0.15526977 0.13552849 0.52526313 0.74997133 0.15677956 -0.64782661 0.021909188
-0.15829854 0.072536975 0.53249693 0.70230722 -0.35163876 -0.61960679 0.029163605
-0.16123654 0.065780357 0.53358305 0.71783686 -0.23912708 -0.65403843 0.0064763469
-0.16396552 0.056118473 0.53351778 0.71011227 -0.21247013 -0.67134607 0.0053345142
-0.1640508 0.046290122 0.53666621 0.67925644 -0.2327341 -0.69690204 0.0072348178
-0.16740531 0.0407742 0.53604048 0.6484735 -0.39427215 -0.68283725 0.0085893096
-0.15913267 0.16152409 0.52135998 -0.68709761 0.19177666 0.71962804 0.0043887547
-0.15885136 0.15475164 0.52286524 0.69219506 -0.069187909 -0.724002 0.010263352
-0.15925068 0.14789021 0.52282745 0.70566994 0.0088760331 -0.71123248 0.017661517
-0.16426833 0.063479654 0.53110385 0.7145288 -0.24066651 -0.65716362 0.009885733
-0.16604233 0.055037398 0.53164262 0.69832033 -0.22128305 -0.6807698 0.0055214972
-0.16897078 0.043880399 0.53279877 0.67081583 -0.27422157 -0.69080049 0.0079873214
-0.16799764 0.041074663 0.53507155 0.65388066 -0.32071146 -0.69329107 0.0092498735
-0.043689515 0.11997677 0.50004888 0.60995269 -0.20762064 -0.78228039 0.0069455141
-0.043836776 0.11153598 0.50225079 -0.55932564 0.20485057 0.81749189 0.047238864
-0.04298573 0.1024504 0.50508714 -0.56394231 0.15544207 0.8198483 0.027018614
-0.042826105 0.092772789 0.50696015 -0.50326502 0.074892499 0.87384248 0.034181423
-0.044275567 0.083100379 0.50673372 -0.52036047 0.092924051 0.85149902 0.030646203
-0.045276362 0.076669671 0.50614059 -0.52112061 0.17407206 0.84283614 0.045639724
-0.046741009 0.12130037 0.49844852 0.56640166 -0.23782459 -0.82118756 0.066263959
-0.046451088 0.11257034 0.50040931 -0.58593887 0.18001409 0.79639089 0.068247944
-0.047172952 0.10254022 0.50170761 -0.6373958 0.15855573 0.7546072 0.048494775
-0.048151985 0.092353262 0.50279468 -0.66149074 0.13294841 0.74530327 0.032516923
-0.048707224 0.08270514 0.50377023 -0.54393071 0.090536915 0.83452821 0.033163838
-0.050116587 0.072813384 0.50331402 -0.57499826 0.17139941 0.80268091 0.047368255
-0.051449005 0.065824144 0.50327939 -0.63483888 0.33414984 0.71261644 0.06551715
-0.05405188 0.057975173 0.50495178 0.68440783 -0.66782254 -0.47641009 0.089375861
-0.094452113 0.092608877 0.50652075 0.63903844 -0.11838574 0.76061922 0.037524547
-0.095280387 0.089051634 0.50678402 0.61935037 -0.19253428 0.76129335 0.035701636
-0.096036755 0.11334313 0.50812346 0.60258448 -0.37857133 0.76902443 0.075541034
-0.099450544 0.10740966 0.51008767 0.63335437 -0.03238856 0.77377182 0.052963316
-0.10119696 0.098401703 0.51202321 0.6425283 -0.033410531 0.76608759 0.039311375
-0.10076043 0.088408068 0.51121658 0.6140992 -0.22758685 0.75639492 0.033672888
-0.10538956 0.083265342 0.51343894 0.54774094 -0.41686729 0.73190737 0.042445149
-0.10880323 0.11702947 0.5179193 0.50383049 -0.19136731 0.88751447 0.093650505
-0.10522867 0.10802561 0.51466089 0.60383737 -0.0031886504 0.79808962 0.056381032
-0.10452205 0.10042934 0.51502931 0.64960414 0.0027766691 0.76163661 0.040032908
-0.10667995 0.088112213 0.51629502 0.59440124 -0.26817036 0.76022553 0.057940137
-0.109424 0.082452476 0.51571679 0.51142937 -0.48494783 0.72738421 0.064164907
-0.11178821 0.11926735 0.51956159 0.46146089 -0.16266586 0.90857565 0.099956803
-0.15946217 0.13244727 0.51876968 0.66444099 0.29645884 -0.69739449 0.035957091
-0.16066049 0.12748484 0.51449347 0.67784172 0.20840296 -0.70803088 0.055295717
-0.16348276 0.072651289 0.52656752 -0.66715443 0.39191353 0.63433176 0.056574587
-0.16240501 0.16160166 0.51810801 -0.6948365 0.21054125 0.71753627 0.0066936086
-0.16473103 0.15540239 0.51692647 -0.69301897 0.096991897 0.72707754 0.01123478
-0.16480464 0.14479464 0.5168702 -0.66068912 -0.047785006 0.75305402 0.023943739
-0.16322607 0.13607453 0.51590532 0.62912017 0.19539547 -0.76391512 0.036019593
-0.16217825 0.12763296 0.51279855 -0.635557 -0.22414267 0.7403425 0.062124312
-0.16743782 0.078704976 0.51592183 -0.47523203 0.48685643 0.73488533 0.086858466
-0.16758938 0.074236207 0.52024639 -0.63940686 0.39624009 0.6615622 0.055236787
-0.17054866 0.065755218 0.52393126 -0.65722418 0.32106251 0.6863091 0.030663319
-0.17237972 0.056061927 0.52522248 -0.68384719 0.22201993 0.69568288 0.0087422831
-0.17260182 0.04816955 0.5274424 0.6741634 -0.25505733 -0.6941433 0.0062685939
-0.16951942 0.1537275 0.51219338 -0.6740849 0.093296118 0.74682349 0.013352837
-0.16968298 0.14916076 0.5126124 -0.68889189 0.10662795 0.75856924 0.026353825
-0.052463416 0.13813666 0.48880503 0.68472028 -0.14577751 -0.71549016 0.0040583285
-0.050004255 0.13124304 0.49277437 0.65858549 -0.18062164 -0.73419642 0.039169699
-0.0514386 0.12256627 0.49399263 -0.69206947 0.14665323 0.71422684 0.076862566
-0.051583324 0.11186866 0.49503002 -0.66723174 0.17084198 0.74930322 0.084436528
-0.05238916 0.10214304 0.49562666 -0.63364124 0.17963199 0.78715783 0.079865128
-0.054142829 0.092808016 0.49680349 -0.59711361 0.15400741 0.80212349 0.06013152
-0.05483989 0.082496472 0.49883807 -0.5788877 0.091796033 0.81548679 0.054304294
-0.055848159 0.072522707 0.49870279 -0.59655041 0.086437128 0.79981732 0.061149411
-0.055393461 0.062192407 0.50074565 0.71261418 -0.34098488 -0.64076757 0.066817261
-0.058252186 0.055199239 0.50228769 0.73703355 -0.66773689 -0.40711293 0.084152862
-0.064239919 0.049338818 0.50065827 0.72937429 -0.81611353 -0.17454258 0.092254065
-0.054793343 0.14007689 0.48622373 0.69443947 -0.13951094 -0.70691913 0.0038134565
-0.054442633 0.13198833 0.4881382 0.71723455 -0.12328326 -0.68849516 0.038363468
-0.055392571 0.12173484 0.48823163 -0.73588496 0.16340059 0.72705334 0.095623083
-0.056639127 0.11268807 0.49043915 -0.58149803 0.23738225 0.79124528 0.095757037
-0.058735862 0.10269797 0.49231651 -0.46355155 0.20581001 0.86276901 0.092149548
-0.059753515 0.092673346 0.49363756 -0.451148 0.12784176 0.88423043 0.084758565
-0.060288802 0.082612082 0.49522215 -0.51255971 0.05638472 0.85876656 0.072775453
-0.060596205 0.072989188 0.49601534 -0.58924252 0.052448269 0.80646783 0.072183803
-0.060448281 0.063019387 0.4957549 -0.67561823 0.16060688 0.72877449 0.075590171
-0.062881298 0.05309695 0.49725813 0.79862297 -0.50769979 -0.46889332 0.088870667
-0.067371681 0.046589155 0.49881849 0.76608092 -0.82301766 -0.12660474 0.091210902
-0.081594668 0.11186124 0.494899 0.69030768 -0.037134364 0.72429526 0.12809512
-0.082488716 0.10419351 0.49488339 0.59420049 -0.026181776 0.80452102 0.12135229
-0.082198739 0.094855472 0.4941473 0.4960677 -0.0062591033 0.87154913 0.11187021
-0.083929867 0.086575843 0.4928599 0.44113049 -0.24050291 0.86811733 0.13274674
-0.087260604 0.08046411 0.49332809 0.45585555 -0.37981337 0.80892593 0.12359267
-0.085777611 0.11304755 0.49974644 0.71018595 -0.3350344 0.67743742 0.093981855
-0.088555112 0.1059483 0.50067502 0.6525563 -0.16267778 0.74152428 0.076572746
-0.089592509 0.096288413 0.50237286 0.64376217 -0.025064254 0.76565349 0.050379306
-0.091219172 0.086481795 0.50257516 0.60839039 -0.24088086 0.75655049 0.056693744
-0.093726046 0.077265687 0.50025016 0.53887528 -0.46407515 0.71076417 0.059982054
-0.099352725 0.070785426 0.49859866 0.51323634 -0.47279087 0.72089034 0.064755119
-0.09603028 0.11516342 0.50861621 0.61040568 -0.39524281 0.77587038 0.076649256
-0.093219578 0.10822863 0.50481957 0.63305289 -0.11959393 0.76766884 0.064403452
-0.096999273 0.082200304 0.50604379 0.5693782 -0.35656145 0.74508518 0.031142447
-0.1021293 0.076381534 0.50597423 0.46445489 -0.55428201 0.70963275 0.026628947
-0.10086621 0.071114115 0.4995729 0.45276341 -0.59681451 0.67401588 0.072442546
-0.098480426 0.11751043 0.51015657 0.67301214 -0.13799717 0.7573511 0.061242882
-0.10722363 0.076102771 0.50928605 0.41454208 -0.62837595 0.70194203 0.041730393
-0.16130944 0.12915261 0.51480812 -0.52576882 -0.41872889 0.77312416 0.050945543
-0.16216493 0.12250559 0.51071966 -0.62461466 -0.24436863 0.74195212 0.075100429
-0.16416639 0.11643067 0.5063929 -0.47362322 -0.19089961 0.86029077 0.086954072
-0.16545077 0.084625244 0.51132399 -0.091663398 0.46074459 0.8845461 0.12975028
-0.16987433 0.1429175 0.5124675 -0.64363599 0.00016571593 0.78653163 0.035909168
-0.16840833 0.13319071 0.51118177 -0.5433079 -0.18258451 0.82218593 0.056592759
-0.16556649 0.12420164 0.50800532 -0.53219432 -0.22182932 0.81830639 0.087259874
-0.16800059 0.11595275 0.50430572 -0.40606952 -0.14457749 0.90321434 0.088295199
-0.17141452 0.10366214 0.50335032 -0.25227261 0.08025603 0.96517754 0.087698735
-0.17111763 0.093208089 0.50677872 -0.19351892 0.30681977 0.93209785 0.09315899
-0.16953884 0.083618492 0.511253 -0.29249623 0.4671497 0.83505911 0.110184
-0.17377457 0.074284837 0.51516557 -0.56591761 0.38270634 0.73152238 0.058022983
-0.17598867 0.066182703 0.51899087 -0.64927179 0.2733278 0.71980298 0.026031954
-0.17897166 0.054651193 0.51922572 -0.69392532 0.20444845 0.69118589 0.005197749
-0.17801519 0.048857637 0.52185345 -0.68930054 0.21494162 0.69218177 0.0067948336
-0.17426515 0.15264259 0.50713694 -0.71767557 0.18292792 0.72845268 0.015825635
-0.17515869 0.14435434 0.50721568 -0.69427246 0.12646201 0.7709772 0.031971019
-0.1760903 0.13562554 0.50722671 -0.82092726 0.10260875 0.79768169 0.053796083
-0.17538433 0.12558787 0.50720173 -0.71586084 -0.0022347418 0.85096985 0.07043881
-0.17394103 0.11538867 0.50306857 -0.30523601 -0.1006341 0.94786596 0.092568249
-0.1743561 0.1042855 0.50230044 -0.26980111 0.083401538 0.96097821 0.086525276
-0.17540705 0.094282314 0.5047608 -0.3110013 0.24968648 0.91749036 0.082239874
-0.17770676 0.083919019 0.50825059 -0.40956461 0.32799745 0.85196471 0.082597159
-0.17816278 0.073895924 0.51329273 -0.57163239 0.33125216 0.76052433 0.06333039
-0.1826067 0.06520354 0.51306766 -0.74034125 0.15084065 0.70810819 0.032035183
-0.18281716 0.055698268 0.51505828 -0.71354663 0.18693078 0.67883444 0.0053898762
-0.18207891 0.049931843 0.51731485 -0.72370052 0.17560507 0.67307872 0.0064050285
-0.061928872 0.14782771 0.47737691 0.7161873 -0.084026709 -0.69311976 0.0041236039
-0.060354102 0.14084964 0.4801321 0.7313813 -0.087240264 -0.67806095 0.0043047084
-0.060302962 0.13160346 0.48085317 -0.75034177 0.091885403 0.6885072 0.044654351
-0.061941843 0.12163252 0.48161897 -0.58436787 0.29473892 0.76986432 0.08412347
-0.063639879 0.11289226 0.48639739 -0.39344352 0.32650381 0.86000139 0.10683738
-0.065271474 0.10317352 0.48891515 -0.22869009 0.25758281 0.94410002 0.1355762
-0.066702552 0.092562668 0.49122891 -0.27525562 0.064339124 0.965909 0.13163689
-0.067395732 0.082917988 0.49241379 -0.44426569 -0.012120616 0.89704955 0.11410724
-0.068685129 0.072336413 0.49148288 -0.56188059 -0.045168515 0.82614619 0.10407647
-0.067440115 0.062457573 0.4899087 -0.6111303 0.0017425925 0.79320139 0.10663494
-0.06806393 0.052652378 0.49073884 -0.76311296 0.19820029 0.6461035 0.10411415
-0.070717029 0.043794684 0.49282208 0.84060085 -0.46419623 -0.40901667 0.091484509
-0.074624479 0.039981771 0.49397966 0.79322642 -0.80120617 -0.054992519 0.11652654
-0.066769645 0.12057308 0.47961587 -0.42684394 0.42935917 0.7968244 0.10024262
-0.07062082 0.11110648 0.48348284 -0.025456294 0.43443525 0.90281266 0.15417936
-0.0716215 0.1030615 0.48669457 0.11011003 0.26411989 0.96181947 0.17633337
-0.072478794 0.093094014 0.48801157 0.09141916 -0.0018244763 0.9996863 0.16929398
-0.072938949 0.083247893 0.48836243 -0.10949043 -0.19022427 0.99248588 0.16461363
-0.073420987 0.074466608 0.48780185 -0.3938981 -0.16792755 0.90563864 0.15234077
-0.073797427 0.063464187 0.48782387 -0.61673027 -0.045476068 0.78612119 0.14201666
-0.073167786 0.043088596 0.48693934 0.80193835 -0.16453928 -0.61201364 0.12885505
-0.080132268 0.11448842 0.49255347 0.66302693 0.24397509 0.71491677 0.14990351
-0.077987239 0.10501076 0.49072728 0.46660545 0.21652007 0.86026871 0.13913181
-0.077043213 0.098247916 0.4900319 0.3590855 0.097605921 0.92950481 0.16900706
-0.079241835 0.082702257 0.48785815 0.19712773 -0.26850161 0.94316626 0.15855388
-0.090400435 0.070020646 0.48807609 0.41374639 -0.34722441 0.85055083 0.16611974
-0.082961544 0.12141467 0.49138698 0.72597712 0.38456932 0.5937041 0.14110632
-0.082304716 0.11862035 0.49357143 0.7567724 0.27975708 0.59831625 0.13455847
-0.093788892 0.072820149 0.49408573 0.49939036 -0.43085033 0.75601858 0.12995429
-0.095039189 0.069880106 0.49242491 0.46445245 -0.45291436 0.76423991 0.13738503
-0.15801369 0.11075922 0.50587177 -0.34566125 -0.16374548 0.92616564 0.115962
-0.16193981 0.11734623 0.50791663 -0.5494864 -0.24214615 0.80329645 0.096719436
-0.16342288 0.11137291 0.50573647 -0.40716237 -0.12974606 0.90448976 0.091148071
-0.16360736 0.10241202 0.50611186 -0.19143824 -0.017647315 0.98172987 0.10054626
-0.16296898 0.093861431 0.50777555 0.03588767 0.13128479 0.99106169 0.11320744
-0.16208473 0.087924972 0.50919789 0.12596378 0.25011113 0.96011186 0.13144204
-0.16811018 0.11130843 0.50376576 -0.33328706 -0.075379886 0.94058728 0.086893477
-0.16875169 0.10416378 0.50433952 -0.22363649 0.061591126 0.97294664 0.088941842
-0.16820244 0.095599174 0.50676775 -0.12869227 0.20789656 0.97034311 0.098918751
-0.18093488 0.13337679 0.50054008 -1.3137358 0.3510043 0.7712056 0.05057054
-0.1810005 0.12505142 0.50232816 -1.0949022 0.23080243 0.83033055 0.060501408
-0.18168752 0.11568256 0.50266653 -0.80583405 0.099569276 0.93213832 0.081191853
-0.18400148 0.10497098 0.50140023 -0.6241414 0.090798162 0.89085358 0.086466365
-0.18282564 0.093796402 0.50325114 -0.39919537 0.19098632 0.89915162 0.08061555
-0.18425077 0.085173383 0.50598389 -0.54600161 0.22020705 0.84417498 0.075530693
-0.1845679 0.078730822 0.50685394 -0.5949052 0.19739343 0.8023296 0.053936627
-0.18444626 0.065417193 0.51088446 -0.77198243 0.10681377 0.70064431 0.03592978
-0.1850189 0.058875829 0.51134849 -0.76309752 0.10296039 0.67428368 0.028710715
-0.18643868 0.1138994 0.49806598 -1.370406 0.23401333 0.97867006 0.073232211
-0.18763773 0.10517752 0.49818209 -1.287547 0.18916109 0.89913934 0.074616842
-0.18913049 0.09443149 0.49950099 -1.0237507 0.16490945 0.77137238 0.069703594
-0.18979485 0.086162888 0.50141788 -0.87291253 0.1533583 0.73364806 0.054858822
-0.06364283 0.14855048 0.47546622 0.70952839 -0.069569312 -0.70206249 0.0039836625
-0.063743278 0.14447451 0.4759047 0.72150201 -0.078093432 -0.68877918 0.0040370896
-0.063941106 0.13105561 0.47619238 -0.72029483 0.16111769 0.69834 0.05345054
-0.074755624 0.03839853 0.48804331 0.81566602 -0.15744066 -0.56571788 0.088771775
-0.076312825 0.036353566 0.48816866 0.84997123 -0.1853279 -0.53267533 0.097397059
-0.067746177 0.15013294 0.47120357 0.70075482 -0.044994455 -0.7132268 0.0039807828
-0.067887664 0.14159198 0.47189653 0.71023977 -0.076821364 -0.70081139 0.0044810432
-0.067725733 0.13070507 0.47200838 -0.67354757 0.2397237 0.71106511 0.064266086
-0.071025662 0.12210981 0.4753907 -0.38946769 0.56010103 0.74896729 0.093419291
-0.071757339 0.11538491 0.48202023 -0.12870885 0.51799423 0.8627677 0.14211392
-0.077107444 0.070889235 0.48599464 -0.42427549 -0.20148537 0.88575596 0.17744932
-0.07932093 0.062342513 0.48397896 -0.66980076 -0.14898854 0.72755307 0.18426967
-0.077991322 0.052613217 0.48251122 0.73938817 0.056396835 -0.67198247 0.17708138
-0.077051535 0.042410769 0.48250499 0.79489732 -0.11006159 -0.61453831 0.15328258
-0.078264996 0.034886748 0.48379117 0.78572035 0.024657926 -0.67799032 0.091138683
-0.084858201 0.063387878 0.47898626 -0.61599535 -0.3274999 0.7180087 0.21690048
-0.19290277 0.084970027 0.49745595 -0.90415436 0.13637565 0.63833028 0.0438607
-0.1938754 0.075946756 0.49864936 -0.86014026 0.078858487 0.65260762 0.046829086
-0.194398 0.068554305 0.49916914 -0.77663916 0.057811242 0.65685624 0.0076916022
-0.073886544 0.15168472 0.46533415 -0.67847997 0.0090504969 0.73889637 0.0038492607
-0.073873296 0.14213005 0.46589091 -0.6949724 0.072242111 0.7157616 0.0039735246
-0.074010938 0.13134804 0.46601209 -0.64136416 0.29041412 0.71129596 0.05586705
-0.077476688 0.1244158 0.46936631 -0.30615246 0.73272365 0.73321503 0.085731111
-0.084239498 0.059884042 0.47755086 0.76566297 0.13913637 -0.62809122 0.18667229
-0.08298064 0.051381148 0.47612855 0.78600901 0.048724461 -0.61784124 0.182956
-0.081441812 0.042970467 0.47524613 0.80719519 -0.11102263 -0.65605092 0.18283793
-0.085016876 0.034851931 0.47685599 0.73153752 -0.083597124 -0.70981282 0.093281195
-0.079839513 0.15787143 0.46068892 -0.68898427 -0.11890863 0.7371946 0.0021784061
-0.078487098 0.15209372 0.46118632 -0.67524415 -0.0068379557 0.74251151 0.0033284768
-0.078770027 0.14202546 0.46140268 -0.68468565 0.06218208 0.72671193 0.0034483946
-0.079366311 0.13109864 0.46191505 -0.66331673 0.23027302 0.71305346 0.036987316
-0.082027167 0.12411846 0.46597874 -0.26014265 0.86374277 0.70320171 0.084141031
-0.0864034 0.060843226 0.47503707 0.73473281 0.25814027 -0.62783808 0.20349616
-0.085832082 0.052716225 0.4705798 0.80204856 0.069179475 -0.59777713 0.18733579
-0.08627408 0.043202594 0.47039589 0.77635133 -0.18919083 -0.64522624 0.1875013
-0.08810167 0.033467345 0.47346532 0.75306183 -0.013207475 -0.73786807 0.10468842
-0.084305041 0.15055056 0.45616508 -0.67565864 -0.0093846787 0.7414158 0.0036898707
-0.084345445 0.14063571 0.45637083 -0.6911341 0.044256333 0.72287571 0.0037873355
-0.084626533 0.13227966 0.45698076 -0.70415109 0.074764498 0.70631194 0.0039251479
-0.092845812 0.059239235 0.46553382 -0.61352205 -0.35104984 0.71473789 0.23439448
-0.089760862 0.053720001 0.46337384 0.70323265 0.21887763 -0.68616229 0.23083349
-0.090535395 0.041722674 0.46474573 0.71121472 -0.31752446 -0.70993644 0.15038086
-0.093467943 0.034119666 0.46649617 0.67065674 -0.24665266 -0.70310849 0.082324475
-0.085442804 0.15701531 0.4554325 -0.67220533 -0.063609585 0.74617517 0.0031193651
-0.088583857 0.15145169 0.45239666 -0.68287003 -0.0080653792 0.73224074 0.003685052
-0.089257456 0.14154951 0.45177388 -0.69591337 0.022252606 0.71914691 0.0043113506
-0.088306457 0.13316786 0.45315981 -0.70991653 0.05944496 0.70214772 0.0041591427
-0.098973833 0.058302462 0.46485537 -0.28926939 -0.72286862 0.64165348 0.21263207
-0.094926059 0.05492397 0.45915419 -0.59018838 -0.34658515 0.74875802 0.2172033
-0.09577433 0.041007396 0.46051788 0.65595555 -0.33742732 -0.68535841 0.12486435
-0.098073997 0.033819113 0.46238199 0.64467049 -0.37169185 -0.68730319 0.073024735
-0.095011614 0.15000729 0.44640851 -0.71783632 0.012526429 0.69729525 0.0041666091
-0.095147483 0.14156148 0.44611683 -0.71977663 -0.0019097738 0.69723225 0.0061562001
-0.09326227 0.13534027 0.44823521 -0.72503698 0.030754285 0.68973273 0.0053898939
-0.10358874 0.056830857 0.45596552 -0.41167772 -0.52528739 0.74690098 0.18422061
-0.10127454 0.052831326 0.45320672 -0.58561188 -0.22814514 0.80912954 0.18168183
-0.10164451 0.042132843 0.45518956 -0.62662458 0.30064765 0.72495168 0.10896551
-0.10349856 0.034310859 0.45797762 -0.58826512 0.51253587 0.72170585 0.040806103
-0.099423416 0.15035227 0.44188237 0.70951587 0.010983086 -0.70587564 0.0033698801
-0.099730581 0.14619595 0.4414295 -0.73899812 -0.005895203 0.67596209 0.003949869
-0.1008107 0.13684666 0.44008783 0.77041131 0.04794075 -0.64375997 0.0045836191
-0.10069727 0.13522491 0.4399986 0.78351665 0.11491287 -0.6312862 0.0051726582
-0.10766859 0.056641612 0.45143706 -0.53879291 -0.44671491 0.72712106 0.17785993
-0.10717335 0.052846354 0.44962269 -0.69172978 -0.22753693 0.85771608 0.19049631
-0.10768655 0.042433128 0.45061004 -0.63028711 0.30228528 0.72212023 0.056306623
-0.10193163 0.13567577 0.43854412 0.78824747 0.11571391 -0.6265142 0.0051726606
-0.11277428 0.057338532 0.44788986 -0.47480598 -0.64781624 0.65121394 0.14962178
-0.11078222 0.051788382 0.44474372 -0.63497686 0.049642175 0.77478391 0.056209344
-0.11213223 0.042415593 0.44702798 -0.59757358 0.34836903 0.75176942 0.026750185
-0.1128444 0.036015641 0.45003837 -0.55311328 0.53265893 0.73772919 0.032502998
-0.11692313 0.05806243 0.43980414 -0.7143352 0.08473099 0.69858402 0.01334228
-0.11808427 0.052668713 0.43943259 -0.66242045 0.17643622 0.73172832 0.010684108
-0.11901265 0.045151982 0.44082314 -0.5981468 0.32347545 0.76029325 0.011009676
-0.12233796 0.057945851 0.43388027 -0.75615883 0.15492481 0.65169591 0.009802809
-0.12201405 0.052529246 0.43576646 -0.70846438 0.23371662 0.68119431 0.010094361
-0.12086662 0.046146382 0.4388774 -0.62388963 0.29257154 0.73699319 0.0095087746
-0.102054 0.059823427 0.45890167 -0.23359254 -0.62070698 0.77593565 0.17043135
-0.097009093 0.059837323 0.46207622 -0.43589652 -0.43719187 0.78700566 0.18371248
-0.083845317 0.052684341 0.4672347 0.0096608819 -0.73430556 0.68210238 0.2314384
-0.093401186 0.059289221 0.47179145 -0.094153546 -0.7684952 0.64374447 0.22040009
-0.093079679 0.063589975 0.46713525 -0.4973903 -0.38226929 0.78452927 0.19927013
-0.087603569 0.067090169 0.4657172 0.6236853 0.36463946 -0.77530932 0.21940397
-0.086893782 0.060698394 0.47650695 0.35797578 -0.80088323 0.48926443 0.21510868
-0.089606151 0.071766078 0.47101596 -0.57482177 -0.24138169 0.78940189 0.16878603
-0.086199939 0.07419572 0.46716601 0.94944632 0.095724702 -0.31572515 0.16496815
-0.085986905 0.079598993 0.47332403 0.85046834 -0.044291314 -0.57251585 0.15074383
-0.083230853 0.080986179 0.47479987 0.88449502 0.017767537 -0.50128365 0.11008845
-0.13588572 0.058261931 0.47206971 -0.13068248 -0.8009991 0.72985154 0.015438512
-0.12427513 0.063174553 0.47167358 0.29597482 -0.93548226 0.66433376 0.042804301
-0.1171515 0.066018954 0.47515637 0.0052548223 -0.92229801 0.4892045 0.062292788
-0.1342645 0.06281586 0.4769018 0.069579832 -0.68624568 0.75282711 0.0089435345
-0.12440878 0.064404003 0.47407642 0.27065685 -0.92489284 0.70814961 0.049360428
-0.11610769 0.064926386 0.47538164 -0.0096165752 -0.94006115 0.37388429 0.08407104
-0.10587839 0.060665626 0.47377458 -0.053611543 -0.98316133 0.27728122 0.15096305
-0.11115123 0.063353695 0.4746404 0.00914397 -0.96473491 0.26560652 0.072475813
-0.10761185 0.060952086 0.47470409 0.03735796 -0.97068113 0.25407264 0.11391991
-0.08269424 0.064583108 0.47732589 0.6605565 -0.75234312 0.16246966 0.16246204
-0.080349348 0.067552835 0.48172989 0.52500767 -0.67759424 0.51844484 0.19540948
-0.079945296 0.069300473 0.48130143 0.75560558 -0.63949656 0.23928359 0.14679582
-0.076679945 0.076501496 0.48579073 0.45789391 -0.50913697 0.73019743 0.17320137
-0.082610615 0.085744463 0.48042437 0.98661464 -0.10814971 -0.39777657 0.15839913
-0.077942975 0.089419983 0.48521397 -0.74056685 0.041238707 0.67910355 0.12412874
-0.076900125 0.090825692 0.48950535 -0.30370677 -0.13130757 0.94986993 0.17641674
-0.14550611 0.06660445 0.48407829 0.44284138 -0.57528347 0.84671974 0.016543791
-0.13586082 0.067671575 0.48122755 0.1918713 -0.66666722 0.73600674 0.021120543
-0.12987623 0.068369932 0.48033482 0.19693442 -0.79520136 0.67507464 0.047928743
-0.14338665 0.071709052 0.48840004 0.24837631 -0.70793039 0.73603499 0.026908558
-0.13607056 0.07195086 0.4855381 0.17645495 -0.78437358 0.69783962 0.032438971
-0.12994598 0.06877739 0.48082486 0.18515185 -0.79786789 0.66815197 0.047928743
-0.076475658 0.083688185 0.48993358 0.63153166 -0.31359974 0.70913887 0.13609408
-0.07559786 0.087591618 0.48766804 0.20215434 -0.18977363 0.9632504 0.17390688
-0.078111298 0.09164051 0.49294665 0.5594905 -0.13720745 0.81921458 0.14452176
-0.074401133 0.094967656 0.48877457 0.2135928 0.0072796466 0.97982121 0.18985853
-0.06889689 0.099561863 0.48987556 -0.16428521 0.17790632 0.98175067 0.16080257
-0.072289206 0.1011401 0.48711094 0.15231864 0.22452773 0.96483791 0.16731527
-0.15472689 0.074902989 0.49371544 0.42683923 -0.5772875 0.99794787 0.11198333
-0.14487731 0.076219529 0.49318692 0.025020242 -0.79928941 0.73759979 0.086085021
-0.1385223 0.07681524 0.49361646 0.069218852 -0.84776974 0.66168106 0.058544066
-0.1427242 0.079179823 0.49909297 -0.25045457 -0.7680676 0.61308378 0.10836738
-0.14016281 0.078684442 0.49793002 -0.16244663 -0.83489484 0.60995835 0.076966472
-0.081927881 0.097440332 0.49574462 0.5897094 0.0021524886 0.81396246 0.10985667
-0.077725582 0.099846601 0.49138537 0.4332583 0.11123782 0.90298897 0.16448517
-0.088074178 0.10411392 0.50032806 0.66306585 -0.079232104 0.74441987 0.063204549
-0.084461242 0.10267051 0.49680308 0.62293333 -0.05026437 0.78093195 0.082483627
-0.076731481 0.10495362 0.48984897 0.39555699 0.12368166 0.91235733 0.16345629
-0.0733096 0.10993785 0.48724526 0.23660778 0.21218684 0.95338744 0.19217177
-0.16450128 0.08192908 0.51271772 0.15772291 0.41870689 0.89811361 0.15311559
-0.15346612 0.079537943 0.50400048 0.38698959 -0.44074753 0.95469552 0.18376367
-0.14728525 0.082198031 0.49897283 -0.28124011 -0.83427465 0.49244913 0.12443851
-0.13508351 0.079212151 0.5076502 -0.33670202 -0.76564807 0.54830116 0.088046536
-0.16373637 0.085580818 0.51097232 0.080247097 0.39721623 0.91561037 0.1428474
-0.15462562 0.085418388 0.50721133 0.19517313 0.1353717 0.98940796 0.16328983
-0.14600521 0.084329836 0.50499737 -0.39715928 -0.64525968 0.65353131 0.15297626
-0.13819385 0.082489967 0.50955749 -0.37198684 -0.70368344 0.60588872 0.097103558
-0.14432274 0.089710131 0.51184267 -0.44121739 -0.26834869 0.85771048 0.12863146
-0.13852337 0.088734336 0.51491213 -0.41708186 -0.43735078 0.79718375 0.11422785
-0.096415035 0.098777466 0.50778013 0.64938331 -0.035724372 0.7603628 0.039236244
-0.10027044 0.10557818 0.51120293 0.6528911 0.037706953 0.75714338 0.043896165
-0.096024774 0.10529643 0.50718784 0.6512875 -0.033260986 0.75813562 0.050809924
-0.087643802 0.10829625 0.49953067 0.63114166 -0.26170179 0.74212104 0.084500514
-0.082429245 0.11034498 0.49495882 0.55737352 -0.30093807 0.78797793 0.12345292
-0.094861083 0.11177099 0.50638306 0.58696365 -0.38879007 0.75714833 0.085219085
-0.087885678 0.11427078 0.50198805 0.56528836 -0.65243131 0.68231893 0.098296002
-0.079852805 0.11627933 0.4955329 0.51588702 -0.6305787 0.72386509 0.13712704
-0.13210444 0.079107106 0.51249874 -0.3606407 -0.72833151 0.58975685 0.1082921
-0.12846856 0.078025341 0.51709491 -0.40162537 -0.64174885 0.71031791 0.15939644
-0.16486242 0.088399157 0.50949782 0.0056138174 0.39138934 0.92147797 0.12779467
-0.15894297 0.088735364 0.50819814 0.060583126 0.28027278 0.95959228 0.13012622
-0.13378599 0.081678115 0.51591891 -0.40636301 -0.60714847 0.69189787 0.13531135
-0.12688161 0.083228208 0.52356452 -0.22628576 -0.63080639 0.81135726 0.18725164
-0.16288431 0.090238117 0.50849169 -0.074590221 0.38829523 0.91962463 0.11376715
-0.15430184 0.092044011 0.50630933 -0.073866554 0.16459498 0.99596375 0.13497332
-0.14467898 0.095262766 0.51188141 -0.43484205 -0.030202413 0.90051174 0.11945185
-0.13681602 0.095816031 0.51682121 -0.27234024 -0.3905291 0.9555589 0.13674723
-0.12344047 0.093015768 0.5264281 -0.078187414 -0.16578342 1.0052154 0.15821342
